# 3D point list with one line of data per point:
#   POINT3D_ID, X, Y, Z, R, G, B, ERROR, TRACK[] as (IMAGE_ID, POINT2D_IDX)
# Number of points: 353, mean track length: 4.7839131822534311
5995 -3.70105227161178 -19.846988459497641 1.0503481997204773 120 85 74 0.23437525750547927 14 991 23 7092 17 4548
3638 2.0352292051802525 -17.444761047408424 3.0840381173572915 104 91 95 2.8756667167158252 25 3339 49 9093 71 6426 64 7686
5994 -3.724639044245408 -19.919346124961343 1.0181859480234694 227 207 85 0.76578591535723184 14 2690 23 7753 17 4547
3637 7.4854080540740187 -16.563473125788455 4.6039336828059527 116 117 108 2.327319651187 76 6673 64 7679 49 7869
5993 -4.413888890354106 -15.413211579536426 1.8198773434920799 188 169 102 2.3538460110396207 26 6766 17 4512
3636 1.2092361344450075 -18.644927117699424 5.0839992081138607 146 142 127 2.2528578604108382 40 4966 50 8822 64 7667 45 8424
5992 -3.5461157037051678 -20.382002643611326 1.4385835104592211 219 200 86 0.46787034947365952 14 984 23 7718 17 4499
3635 1.3095157701674331 -18.873244048867679 5.3257015053873209 213 210 197 0.20171372430703055 50 8816 64 7659
3634 7.1636819049919298 -21.896002165820235 1.7084485106280776 148 156 134 1.0197974022724523 21 7197 43 2835 64 7652 38 4000
5990 -3.670209324378698 -20.065856690982262 1.5704149268672201 218 203 98 0.35875103202598108 14 916 23 7699 17 4455
3633 0.83826599607981878 -14.96665559162097 -0.94408137057184849 139 114 60 1.6977238821550342 22 6671 71 6225 64 7551
5989 -3.2281817234914789 -21.210113481192796 2.3563693840924027 185 115 48 0.6858221847276712 23 5770 79 2252 17 4349 81 8033 82 10011 84 10427 85 10606 86 9776 87 9695 88 10003 89 9700 90 7872 92 7482 95 10703 97 10538 112 7089 113 7563 114 10031 115 10189 116 7393 127 10985
3632 0.58005256031868757 -17.938616948712276 -0.41363010174330073 79 65 83 1.0473080302984152 22 6816 71 6210 64 7541
5988 -3.0989326838491307 -21.644695794703239 2.1772551130124342 208 181 63 0.5257110140650465 23 6972 79 2251 17 4345 81 7707 82 9618 83 10177 84 10444 85 10097 86 9795 87 9714 88 9597 89 9306 90 7891 91 7553 92 7497 93 7605 94 10173 95 10239 96 10372 97 10558 98 7288 99 7075 100 9492 101 9149 108 8804 109 8846 110 7177 111 7191 112 7107 113 7148 114 10054 115 10205 116 6965
3631 0.77469404010263354 -14.059049221484921 -0.46488413116906291 58 41 42 1.5405437815725955 22 6743 64 7535
5987 -3.0989326838491307 -21.644695794703239 2.1772551130124342 208 181 63 0.5257110140650465 23 6971 79 2250 17 4344 81 7706 82 9617 83 10176 84 10443 85 10096 86 9794 87 9715 88 9596 89 9305 90 7890 91 7552 92 7496 93 7604 94 10174 95 10238 96 10373 97 10557 98 7287 99 7074 100 9491 101 9148 108 8803 109 8845 110 7176 111 7190 112 7106 113 7147 114 10053 115 10204 116 6964
3630 0.44407850377030172 -17.987937628728105 -0.29115785843402725 196 178 84 1.2833642944247166 71 5880 64 7533 22 6788
6173 -4.1011704775218281 -16.716378587267219 -0.26453209569734287 46 30 37 1.6392605744516375 1 1657 31 10990 26 5717 107 10523 163 10949
3816 2.0341426428471228 -21.098343231753649 5.6940640443043593 158 159 163 0.54901965501285888 25 2920 40 4545 45 8058 50 7863
6178 -3.9766084818828933 -17.114771578937845 0.019930673371628314 115 89 53 0.92905524809854567 1 3624 26 6217 31 11070
3821 1.0457792782245505 -19.118657328204097 5.4286085942771232 201 199 188 1.4761642141672566 20 2905 25 2524 40 4235 45 7596 50 7913
3829 3.358503452183641 -20.860581487703183 5.6820628022706563 161 165 123 1.1875051888616848 25 3043 40 4897 45 8474 50 8242 20 3427
6186 -4.3095993612167476 -16.300957009295992 0.4141931962588058 63 46 32 1.6248765670752954 1 5610 14 4512 31 11173
6187 -3.971782107489894 -17.17880546942353 0.41593862136173476 21 10 32 1.3093821504581937 1 6135 26 6812 31 11175 102 11369 103 11802 104 8102 105 8015 106 11389 107 11134 163 11074
3830 3.3536951746732795 -20.862496437032732 5.6749170983430952 153 160 133 1.1692293737489567 25 3044 40 4898 50 8243 45 8475
6189 -4.3273182057361712 -16.067294915619694 -0.090562740752932941 39 30 26 1.4228716633938567 1 4826 14 3862 31 11182 106 11077
3832 2.2313924710043298 -20.561116457781445 5.9079620661939716 185 184 180 2.0852461738109564 20 3327 40 4768 50 8252 45 8309
3834 1.9577972294467032 -20.594612653173883 5.8940132007037249 205 204 194 0.75254320822719289 25 3055 30 3416 40 4770 50 8257 20 3331
6191 -4.1041391046701161 -17.20701560536726 1.0979855171263404 29 13 39 2.1154859549096314 26 6938 31 11194 1 6468 102 11494 103 11930 104 8226 105 8147 106 11521 107 11262
6192 -4.052779821099346 -17.05186960829165 0.7314710624019648 79 59 36 0.5125865317553342 1 6478 26 7060 31 11201 102 11501 103 11936 104 8233 105 8154 106 11527 107 11268
3835 2.1499526567867586 -20.090187377054004 5.9850350141855406 167 161 153 0.25488810994575134 20 3332 40 4760 50 8258
6193 -4.052779821099346 -17.05186960829165 0.7314710624019648 79 59 36 0.5125865317553342 1 6479 26 7061 31 11202 102 11502 103 11937 104 8234 105 8155 106 11528 107 11269
3836 1.733415281307235 -19.322078531275189 5.6945339361402425 196 196 177 0.70924318657857899 20 3155 25 2945 40 4526 50 8270
6195 -3.8164805820864656 -17.275883027861617 0.25301777133730557 44 27 34 0.66246974047819929 1 6146 26 6952 31 11209
3838 -2.4996180902028642 -23.101251656683143 4.470404265862939 46 41 95 1.5572343953979793 23 6778 40 4662 50 8290
6196 -4.024055310338257 -16.861553832883743 -0.31082150664976882 61 44 33 1.0373804190861913 26 6963 31 11213 8 6066
3839 -2.7566142918574879 -22.866267442061243 2.7711753278890696 111 45 71 1.5722146404607615 23 3833 50 8380 37 6490 82 8856 83 9403 84 9657 86 9009 87 8938 88 8868 89 8586 92 6516 93 6642 94 9383 95 9499 96 9626 97 9805 98 6358 99 6163 100 7816 101 7487 108 7295 109 7361 111 5227 113 6355 116 6177 129 8298
6197 -3.8816706302923638 -17.253673843236818 -0.0628827574417508 29 20 31 0.86676363728178396 1 6507 26 7077 31 11236
3840 3.380106285617249 -21.282595622998539 5.4266972525349715 143 150 134 1.5680912197836809 40 4901 50 8526 45 8337
6198 -3.962273664596565 -16.725268501279515 -0.051277524737329772 59 41 50 1.790028750963419 1 6508 26 7078 31 11237 8 6609 107 11342
3841 2.0736213338615115 -21.618485143480164 5.3935763864765542 186 183 190 1.724942856642512 25 3150 40 4910 50 8539
6199 -3.9649636261262122 -16.72707385257204 -0.051517100885910855 41 28 48 0.86379324807418556 26 7079 31 11238
3842 3.2662146708633695 -20.153863566448639 5.9425442942004558 166 162 112 1.3419875817741593 20 3438 25 3052 50 8542
6200 -3.9060967781456792 -17.116754049081628 -0.44961045750886169 92 71 28 2.0562681773058107 26 6969 31 11240 1 6174
3843 2.7021764752393946 -20.70424360988104 5.8144182307306025 138 131 117 1.0517982611774579 25 3049 40 4761 50 8544 45 8466 30 3528 20 3451
3844 2.0961336511235293 -20.965490157414614 5.7707134252794177 179 178 183 1.1882955324098994 25 3047 40 4771 50 8546
3845 2.9729466747853857 -20.036153843148561 5.9749053897137214 154 159 145 0.79115078560657681 40 4894 45 8460 50 8547
6202 -2.9770723163017636 -22.047088623608047 4.0860178097986486 85 72 69 0.54933761972768946 23 7568 14 571 1 730 110 6997 111 7024 116 6766
6203 -3.2773374145181124 -21.045717556441367 3.6782914791416759 74 58 89 1.5942598906591809 23 6831 26 3034 14 579 108 8073 109 8117 110 6277 111 6299 112 6210 113 6243 114 9251 115 9411 116 6067 116 6803 131 12002 153 8049 166 8905
3846 2.4042842097128756 -20.343851090824796 5.9506690761505165 182 181 164 0.86471654504816586 20 3463 25 3056 30 3420 40 4759 45 8308 50 8550
6204 -4.325596963727941 -16.223518610483449 2.6472369788212857 143 123 62 0.68003158009698439 1 3194 26 6474 14 734
3847 2.8890743393079688 -19.895673101096907 5.9761331026475837 153 153 133 1.0754193658195952 30 3300 40 4745 45 8304 50 8551
6206 -4.222063816583483 -15.887782060699022 0.82263539104495587 94 65 49 1.9409564078033388 26 6159 14 1012 1 3501
3849 1.2651864570332176 -20.027709846889778 5.8922413544275862 194 194 189 0.8268992028248876 25 3063 40 4769 50 8559 20 3478
6207 -3.1421925291065684 -21.443106816148664 3.7823933642699914 115 77 52 0.79609123413541993 1 3087 23 7580 79 3436 14 2456 108 9055 109 9098 110 7534 111 7535
3850 1.8076002623065883 -19.409823198706704 5.7429201663131648 164 164 168 1.0606743259341798 25 3066 40 4746 45 8284 50 8560
6208 -3.2124839975060762 -21.21732841921801 3.9706976897252542 88 64 66 0.57436193023061144 1 4499 23 7572 14 2457 108 9048 109 9092 110 7528 111 7528 112 7430 113 7450 114 10347 115 10506 116 7272 153 8463
3851 0.88440473626731653 -18.85181114965571 5.2008668227932109 161 165 176 1.2839891349819272 40 4741 45 8264 50 8576
6210 -2.7636009990818904 -22.768903824767097 3.0016676229335566 84 68 66 0.88019165062148275 1 3226 23 7620 14 2514 82 10231 83 10805 96 11088 97 11268 98 8062 99 7857 100 9836 101 9486 108 9086 109 9132 110 7889 111 7892 116 7627
3853 2.5331051869111176 -20.225328395443071 5.9909148384186652 148 147 129 0.96315677045746007 25 3235 45 8458 50 8708
3854 1.8188846619978623 -19.256944070499809 5.6528945347405202 161 163 151 2.1182967260177725 25 3067 40 4740 45 8281 50 8712
6211 -3.1610680530761299 -21.388015158747859 3.3897064974199593 142 123 64 0.58749807897006123 1 5448 79 3736 14 3629 100 10267 101 9901 108 9484 109 9524 110 8088 111 8077 112 7988 113 8040 114 10894 116 7831
3857 3.0141332872195266 -20.875340424657963 5.6628252818351958 157 157 123 1.1493357332735461 25 3275 40 5040
6214 -2.7724238248320954 -22.663498720134584 1.0181275020478942 216 192 72 0.52586146316924276 23 8639 14 4930 1 6472
6215 -1.3783560101971477 -21.056649318770489 -0.21477288605187189 233 225 171 1.2009769764874081 17 5818 23 8818 14 4966
3858 3.0486878306205099 -20.876966033955409 5.7101838251737789 152 157 142 1.1389546181343317 40 5039 45 8654 50 8806
3859 2.0252267743469523 -20.52114678041433 5.9298850668313525 202 203 193 1.9279372690288472 20 3615 25 3232 30 3609 40 4986 45 8577 50 8812
6217 -2.8562882672172316 -18.452492599748123 2.6580835708819563 201 184 101 0.047074327124270579 26 5430 1 890
3860 -1.2070367124683474 -23.906826287564854 1.7736935445029813 229 223 187 1.1649601974054478 37 6584 50 8820
6219 -3.9010956080814978 -17.703370285712623 2.2604623793224321 109 88 49 0.32071492034190374 26 4611 1 1048 102 10043 103 10460 104 6723 105 6682 106 10102 107 9839
3862 2.4840353032642701 -20.539618252909694 5.8916095261769659 162 164 142 0.634059777994609 25 3278 40 5076
6220 2.5451889854036645 -22.707891127177835 0.8262543267644995 229 221 175 0.50261008944700969 21 7231 29 3478 1 1243
3863 2.9217056575099178 -18.871462122886701 5.6449498843839958 142 141 114 0.78754104985519191 25 3241 40 5031 43 6575 50 8905
6221 -4.245728937142113 -16.969918153716794 1.0737338492389525 120 91 55 0.19214242708954146 26 5593 1 1279 102 10162 103 10565 104 6855 105 6806 106 10228 107 9954
3864 6.1675377841575063 -18.942458103482227 6.0665466507251526 98 111 125 1.3860240179696526 25 1357 49 70 40 3694
6222 3.166793894292542 -22.557897573454159 0.42027854092255595 212 214 181 0.79748000520619178 21 6861 1 1325 29 1404
3865 3.955894332389482 -17.659735479099272 4.8527391696268394 125 134 127 1.3214041901887856 25 1567 36 2668 49 219
6223 2.5673250308357174 -22.685322020219765 0.5883321980357844 196 194 151 0.6548691947493247 21 7250 29 3509 1 1330
3866 4.8862645171392369 -17.529372073186501 4.9978869221759687 63 58 105 0.69416855763245777 25 1510 36 2696 49 328 43 184
3868 0.84956722005951035 -17.854389635127827 2.2155064599218703 100 115 123 1.0813655241477542 22 4132 49 635 36 427
6225 2.9705522684275363 -22.592480484050778 0.38014295998166636 214 208 165 0.7099901988752606 21 6862 29 3567 1 1405
6226 2.8954556656102377 -22.596474085124449 0.23073502531217208 233 231 201 0.477311961703347 21 6283 29 1408 1 1406
3869 2.4855456520791344 -17.210093849550407 2.995780404043022 134 136 110 0.82339409195110236 25 2295 36 445 49 653
3870 0.41290759823026157 -17.984591003552492 1.9181603010840094 221 223 205 1.4189467009130885 22 2707 36 2882 49 718 43 372
6228 2.7747891232735062 -22.650501742214576 0.20165988238019436 153 140 110 0.93781239299492569 29 1457 1 1464 21 6285
3871 3.0763397436425888 -17.172509428749972 2.9442749918228914 114 123 101 0.60416296985915752 25 2601 36 2926 49 799
6229 -4.6308776053091378 -16.662741994774535 -0.13886609354656929 111 89 41 1.3141315715106938 26 6232 1 1581 8 3515
3872 3.2024324371616331 -17.090505561674902 2.7469198966944641 135 136 99 0.92954878251418727 25 2838 49 874 36 620
6230 3.0334105001249392 -22.589466530661124 -0.22026512367480358 205 199 147 0.66314061010865777 21 6941 29 1577 1 1618
3873 3.4593474860545421 -17.060928517667428 2.6154432473122986 111 120 101 0.5933670835037268 36 3016 49 928 25 2992
6231 3.0621882385018675 -22.574393422826059 -0.23951059006929967 143 134 120 1.0214466368969244 21 6940 29 1575 1 1619
3874 3.4263323333326188 -17.017178616267977 2.5352370845625485 144 152 141 0.54705015687898595 36 3014 49 989 43 532
6232 2.9764635848766705 -22.616471456983163 -0.43226423457375734 186 193 141 1.3235682396532207 21 6963 29 3729 1 1698
3875 8.0042923877112209 -15.878734473515438 2.1788911091399847 95 108 140 1.5986120585492667 24 3075 36 983 49 1376
6235 -3.9578936577410659 -16.412422035393103 -0.5456925098883727 60 39 34 0.68331883091046974 8 1396 26 5002 1 1736
3878 9.5780805915830012 -19.8279071261497 1.2437522659571061 102 106 105 1.2841754029425798 38 4063 49 1530 16 6256
6236 2.9915030647634162 -22.607006033541776 -1.0417586275499113 115 113 133 1.6255606808848675 21 7032 1 1853 29 1859
3879 4.1931679879669419 -16.797531533431481 0.89872935616098804 142 147 111 0.7843230947613592 36 3373 49 1576 43 2971 32 4005
6237 -2.8413834800782416 -18.71347848212104 2.3053596773791236 213 195 119 0.59689486356660504 26 5457 1 3238
3880 8.518521618940559 -15.862154517610813 1.3936969234702716 171 181 185 1.0562839979291287 24 4517 36 1184 49 1585
6238 -3.0126617642693607 -18.548134820774134 2.3977852933571056 141 124 103 0.08160893674153763 26 5458 1 3241
3881 9.020319696310116 -17.846237254742967 1.3554406512911357 70 77 109 1.7784807110535292 24 4522 49 1590 36 3329
6240 3.2036745497195893 -22.551705850712732 1.3129253165952262 202 203 153 0.70019247142222429 21 7195 29 4749 1 3264
3883 8.302517365510786 -14.792689465259977 1.0838666360634854 176 190 205 0.61417936139840101 32 2907 49 1658 27 3722
6241 -4.2289464418845961 -16.409869547056111 1.9935983711264516 32 22 61 0.021760524501775774 26 6502 1 3289
3884 8.7141880787164698 -15.987614540133963 1.1652483518333243 146 153 133 2.0959411947144186 19 4337 24 5497 49 1663
3885 8.8452961934024881 -16.638862499412785 1.0275096598316487 102 126 135 1.4934443246759364 24 4591 36 3423 49 1664
6243 2.9442199758895868 -22.600316560395282 0.40731362887474065 109 107 121 0.68223393188519221 21 6863 29 1407 1 3524
3886 3.2252014498862387 -13.253780141157465 0.51721399396817125 153 158 133 1.3284816574467595 11 1486 22 4569 27 4166 49 1732 17 3379
6244 2.7539218785783577 -22.65502479815984 0.23762648668452394 236 233 197 1.1811981305313861 29 4855 1 3528 21 6882
3887 3.1969040805959348 -13.257801388794203 0.47611706487783023 138 135 101 0.85944460204371342 17 4591 49 1733 11 627
6245 3.0658090489054786 -22.572196484029948 0.10188812768762616 209 212 174 0.47336593234633911 21 7293 29 3597 1 3562
3888 4.3042024833189636 -16.848885824006558 0.4918640664416008 146 151 100 0.30411076733154468 36 3457 43 1120 49 1741
6246 3.0862301921495598 -22.559621159699731 -0.14976734224505167 168 167 137 1.0633230870507171 21 7564 29 4887 1 3604
3889 8.1170241808668351 -15.673255968772061 0.57698438815191899 62 66 80 1.3841546268383287 24 4650 36 3480 49 1753
6247 2.8756522272934917 -22.645394683613521 -0.12224321193638713 216 215 162 1.3432764253463816 29 3636 1 3605 21 6926
3890 4.1802828794046425 -16.738962296616837 0.19826868788289259 160 166 116 1.0866226157508259 24 6472 36 3499 43 1198 49 1812 32 4100
6248 2.844401885635496 -22.621175099370085 -0.17849943091905257 153 164 132 0.71411436300456177 21 7303 29 3675 1 3606
3891 4.1970818400290355 -16.778821496626751 0.17667249618753364 67 65 63 1.0587077726993497 24 6115 36 1431 49 1813
6249 3.0291305322931938 -22.620860805994216 -0.60940833684801132 147 158 146 0.65029627650234401 21 7357 29 3782 1 3677
3892 8.2850225819959888 -15.761571922518671 0.47628700029318871 72 68 92 0.95856515566925982 24 4676 36 3481 43 1203 49 1829 19 4872
3893 12.521721900480603 -14.99868768147474 0.63810924987863182 129 155 142 1.2746196565773713 19 4400 24 3400 36 1393 49 1836 13 6654
6250 2.8192220670421717 -22.649656887795825 -0.53562608470190709 128 130 137 0.96343304171649546 21 7351 1 3678 29 1728
6251 2.8192220670421717 -22.649656887795825 -0.53562608470190709 128 130 137 0.96343304171649546 21 7352 1 3679 29 1729
3894 12.641497772092945 -15.530567684143033 0.57251872989439567 172 186 188 1.4630034449730154 13 6656 19 4664 43 1210 49 1840 2 3703 24 4681
6252 3.0396810231317919 -22.607670527900535 -0.94936328856438201 123 123 128 0.43694278276408066 21 7621 29 5029 1 3777
3895 8.0047757506046597 -15.360319409186173 0.10358020164936986 120 150 153 0.83311454375060534 24 5585 36 3503 49 1907 43 3170
6254 2.880935961802277 -22.626746052984839 0.15163302452651695 215 212 173 0.60571389056226854 29 5725 1 4777 34 4868
3897 11.9195050631103 -14.580457305899056 0.24357127158065528 160 181 180 1.090175063443579 2 3579 19 4417 49 1910
6255 2.7986156113630924 -22.629938582635795 0.080747732506489381 207 203 141 0.96507054754137933 21 7559 1 4778 29 4869
3898 12.517055175017308 -15.010358263739905 -0.029537973692269986 144 165 164 1.4368991882044657 19 4435 49 1911 36 1440
6256 3.0354940278492917 -22.58861035958898 -0.13453603885689866 208 208 150 0.79563349356826929 21 7565 29 5738 1 4803
3899 12.93398830568996 -17.518242975304894 0.05406969358971199 71 63 82 1.3660079280779478 13 6777 16 6346 24 1615 36 3507 49 1916
6257 -4.0648052985658634 -16.91345157509517 -0.0636453844437741 54 43 49 1.6012744828324841 22 6212 26 6584 1 4823
3900 2.3067363994199073 -13.499038329042834 -0.39997291114044148 165 170 136 0.68849848352703125 22 1513 27 4396 49 1971
6258 -4.7195593853071403 -16.130996854035068 -0.098347900562047369 53 39 47 2.8503397397542458 8 4812 26 6236 102 11031 103 11451
3901 2.7886264002160686 -13.387291645079879 -0.39257162456590772 153 152 115 1.4069150090724789 22 3527 27 4210 49 1973 17 1766
6259 3.0288857406822753 -22.589761561127304 -0.44511363378397301 181 186 134 1.0266633444991471 21 7341 29 4951 1 4863
3902 12.669820865072211 -16.616899628988104 -0.21341942511809772 179 194 211 1.5955462871639818 19 4695 24 3518 36 3531 49 1995
6260 3.1269047600122875 -22.573351790108514 1.04025390416786 212 209 167 1.1564894303367974 21 7710 1 5514 29 5635
3903 12.830296279431602 -16.281617682336666 -0.33657663854590431 70 69 103 1.421585209335078 19 4694 24 3515 36 3528 43 1278 49 1996
6261 3.0620917384244857 -22.580308260865518 0.0059000094074663561 205 208 160 1.025806452503679 29 5735 1 5621 21 7742
3904 12.894852883276851 -16.562837988711443 -0.36902724242189983 75 72 83 1.1926095071739984 13 6788 19 4702 24 3519 36 3533 49 1997
6262 2.9922062916765046 -22.597216371125828 0.13702822119328381 222 219 171 0.51264073530724918 21 7736 29 5722 1 5622 34 6674
3905 12.77621742749044 -17.470011205216149 -0.34236830055917844 163 167 137 0.75612495558838466 16 6607 43 1359 49 2003
6263 2.9164846775899176 -22.602248605407855 0.089412744524170126 157 162 135 0.5499815501489338 21 7740 29 5724 1 5623
3906 12.77621742749044 -17.470011205216149 -0.34236830055917844 163 167 137 0.75612495558838466 16 6606 49 2004 43 1360
6264 2.8458729634908155 -22.619870345626605 -0.015455928742000901 216 213 170 1.1406595921254745 21 7743 29 6275 1 5639
3907 2.693761305166539 -13.402829583719283 -0.48561702307756305 102 96 101 0.24598701196519776 22 4663 49 2058 17 3567
6265 2.9176974502904169 -22.616483869061309 -0.71708648603798986 141 147 139 0.58576544096518535 29 6322 1 5703 21 7860
3908 3.0319028083369259 -13.330204686716833 -0.60952221577955856 152 151 113 1.5822216819138903 17 3570 27 4228 49 2062
3909 4.1474572699462255 -16.604730796817542 -0.53284209549347317 99 94 85 0.75122658816487087 24 6563 43 3260 49 2066
6267 2.8491474015397107 -22.616461107574576 0.13278138753453689 217 213 158 1.3514397481023825 21 7833 29 6261 1 6142
3910 4.2017406426110577 -16.816423957879291 -0.57468676772861271 145 151 105 1.1888379299072531 24 6575 43 1414 49 2067 36 4799
6268 2.9564416912100273 -22.595754531269666 0.0045682138503247765 213 214 168 0.92104785661115984 21 7837 29 6273 1 6153
3911 4.2017406426110533 -16.816423957879294 -0.57468676772861249 145 151 105 1.1888379299071037 24 6574 36 4800 43 1415 49 2068
6269 2.9564416912100273 -22.595754531269666 0.0045682138503247765 213 214 168 0.92104785661115984 21 7836 29 6272 1 6154
3912 12.092057586410997 -14.890470570458469 -0.87366122423765336 121 157 136 1.8247910847867199 24 3632 49 2083 19 4721
6270 2.9285468034869671 -22.618367876176052 -1.1391413509452037 88 80 91 0.90329417669494261 21 7784 29 5851 1 6224
3913 0.46844866560140613 -17.99670554220274 -0.46248369101533232 150 151 86 1.3978326817807492 36 1731 49 2135 22 3611
6271 2.8598175082137609 -22.635248078745242 -0.62132280411060636 100 90 112 0.63130818355050544 21 7973 29 6910 1 6525
3914 1.4130051167757443 -14.242164825454394 -0.65753240217800479 46 35 31 0.99330270079330274 22 3559 49 2139 28 9998
6272 2.8201557919435549 -22.624980641994359 0.31865140532101832 236 237 218 1.1457513508825341 21 8009 29 7220 1 6918
3915 4.1897611081315462 -16.789563246364001 -0.73282711708118053 57 52 55 0.56104148266258769 24 6611 49 2157 36 1665
6273 2.8201557919435549 -22.624980641994359 0.3186514053210186 236 237 218 1.1457513508825341 29 7219 1 6919 21 8010
3916 8.1322512877053175 -15.465367994291348 -0.77434345972354413 78 86 112 1.7331641856487239 36 3581 43 3271 49 2161 24 1840
6274 -4.5243515538297832 -15.778275948006986 -0.25112443265553724 138 126 66 0.98520603885611768 8 6894 26 7220 1 7029
3917 12.583654400359253 -17.122258819102321 -1.0256998265932757 192 204 201 1.3399038993292427 13 6802 19 4117 49 2179
6275 3.2060136336290461 -21.411105559319079 5.323010230256636 166 152 104 0.47739749854436525 25 279 30 282 20 813
3918 12.637782414312584 -17.745322798534275 -1.0222657655194325 165 185 184 0.75087024009706693 16 6636 24 3639 43 1430 49 2181
6276 2.9157733739905658 -21.001481796521841 5.6369036325255415 207 199 136 0.34846272642117027 20 2439 30 2765
3919 0.48221090982062992 -17.989550464034714 -0.5933894877658813 197 192 109 1.8755693095358292 22 3689 36 1823 49 2234
6277 2.9193962808388414 -21.155131042792615 5.5482748017852765 186 181 142 1.027413354514489 25 2023 30 2766 34 3861
3920 4.1928077289563701 -16.76773634306528 -0.82252705855869135 70 63 52 1.3048586158241935 24 6613 36 3641 43 1486 49 2248 32 3226
6278 3.6075105591994308 -20.697081474360353 5.6825696913888208 184 179 121 0.90985717210821715 20 2384 25 2431 30 2794
3921 9.414224711152908 -11.407444538588219 -1.5197760701434044 52 44 45 0.70535836059040846 24 4859 49 2253 2 3629
3922 4.1099181641952578 -17.178835124565467 3.8939716228581323 112 130 123 0.082416382979334318 36 318 49 3893
6280 2.9633944786950726 -20.612188149068505 5.8033313381295182 194 188 127 0.88747574107400784 20 2837 25 2722 30 3084
3923 6.6851947470207929 -16.936212265194282 4.8458524152636162 83 69 78 0.70687255948888772 76 6074 49 3903
6281 2.6631820557830026 -16.437574228265184 3.2851478987619247 112 110 103 2.3548613939056513 25 2635 32 3688 30 3136
3924 0.82894313506317907 -17.858965709896573 2.1881780055211268 93 105 127 1.0590254142007891 22 4133 36 428 49 3920
3925 10.583991167497173 -16.715939207237213 5.7847492008345727 37 44 114 0.83321882419582449 24 5248 49 3967
6283 2.6369394689133525 -16.257382662800207 3.2957760465581356 121 120 116 1.1427886187023621 25 3011 32 5077 30 3324
3926 3.3682097633536241 -17.004993839397962 2.5062903625914146 108 118 122 0.65868838388805784 36 4389 49 4086 43 4070
6284 2.7032277809017602 -20.697232671669486 5.8091359853109727 161 144 107 0.50172954810541104 20 3450 25 3048 30 3527
3927 0.27142079121042123 -18.038302784594986 1.1516117801824672 226 224 188 1.4506309106449331 36 765 49 4167 22 415
6285 2.8877860934046105 -13.365387333405296 2.1433744275036828 194 199 199 0.92441019919441914 22 5149 32 3815 30 3593
3928 8.7088308485725534 -16.734323883011232 2.2024143062052364 175 185 218 0.80603362027519632 24 4438 36 3253 43 832 49 4353
6287 2.341997403431217 -13.649353303312877 2.9200248880171591 130 128 132 1.2040561630397169 22 6104 32 5416 30 3640
3930 8.9213368657187022 -17.733942636463393 2.0216163145692425 181 191 206 1.2701278477752718 36 6078 49 4357 24 6028
6288 13.064797857131646 -16.746399174533654 0.13046711482515932 197 206 220 1.1248667915112318 36 1441 19 4007 24 1611
3931 3.0966305429669028 -13.297380628428019 1.8345329737728882 164 174 183 1.350994740180439 22 5792 49 4393 36 4520
6149 -4.2480442561960681 -16.232751361784548 0.019659110081970049 91 78 57 1.3770250865397191 22 1352 26 3642 31 10601 102 8700 103 9139 104 6330 105 5246 106 8792 107 8566 163 10713
3792 -2.5916013009927084 -23.057767842413977 4.4243302436655885 139 123 109 1.6658425390314824 23 309 40 3473 50 6281 131 11121 134 11434
6289 11.906634579093547 -14.610678169052933 -0.27432084423859665 134 165 157 1.0418401349256434 24 1675 36 1488 19 4037
3932 8.8228591083688244 -17.201015685349823 2.0300639055977565 211 218 244 1.0427373360508672 24 6026 43 2873 49 4404
6150 -4.280142037365219 -16.140838547519106 0.021732968400174885 30 18 42 1.7060446095884023 22 1354 26 4904 31 10602 102 9682 103 10056 104 6332 105 6282 106 9736 107 9493 163 10715
3793 -2.5616915265986333 -22.842614317431082 4.4785901729320408 142 120 119 1.9641691791534071 23 3430 40 3426 50 6306 130 10957 131 11062 134 11409
6290 12.924804527333526 -16.813067181808435 0.81773869879835293 37 38 96 1.2218228125870565 24 1511 19 4388 36 3466
3933 9.2504330866619195 -20.020515634666246 1.4884570170687268 145 159 144 0.35073518896022637 24 4495 49 4406
6151 -4.280142037365219 -16.140838547519106 0.021732968400174885 30 18 42 1.7060446095884023 22 1355 26 4903 31 10603
3794 0.13581947356379684 -18.596506213836836 4.6813447769865828 160 158 173 0.81184681042079543 40 2972 50 6398 45 5726
6291 13.016808821832189 -16.97466689785011 0.75377645268709459 31 23 86 0.66956068431562255 24 1513 36 1354 19 4392
3934 6.5109937892613443 -15.960839941802044 1.4598227467248841 215 224 248 1.1067811343413785 24 5408 49 4447
6152 -4.0533568445329093 -16.9059239787316 -0.11524253603931513 33 27 32 1.106585479788458 22 3419 26 3682 31 10620 102 10271 103 10083 104 6990 105 6305 106 9758 107 10073 163 10862
3795 3.4273191691430123 -21.248362746296866 5.4305250563123044 137 137 117 1.5455530565643318 25 2706 40 4537 50 7097
6292 12.681255445254765 -16.470762413891325 -0.22244583563036044 184 200 217 1.0752184569788297 24 3516 19 4447 36 3530
3935 9.1370304179090471 -18.444861931847889 1.3458290596128784 76 85 117 1.0552956413339145 24 5451 43 971 49 4451 36 4587
6153 -4.0742526680394162 -16.840238986413034 -0.11943111536359262 28 22 43 1.3565145617040091 22 3420 26 3684 31 10621 85 8886 102 9697 103 10084 104 6354 105 6307 106 9760 107 9510 163 10736
3796 2.9901637954151776 -21.147100491263011 5.5435751804150657 111 107 105 1.13361743166896 40 4246 45 7718 50 7120 25 2707
6293 12.870080193089652 -16.515912699837436 -0.28821847519586907 44 41 73 1.3190241565138221 24 3517 36 3532 19 4448
3936 9.2015559654902415 -19.271706458085564 1.4506945719231723 111 131 163 0.76961965748763173 43 2988 49 4454
6154 -4.023745810801203 -17.002245071631233 -0.2061066413331408 92 78 52 1.2727369574925247 22 3454 26 4951 31 10631 85 8885 102 9695 103 10103 104 6353 105 6304 106 9757 107 9509 163 10748
3797 3.42929088007075 -20.607440018270577 5.7658652115600688 143 149 126 0.52844078162484853 40 4224 45 7705 50 7121
6294 12.494340266565958 -14.954763734413275 -0.58829578189653142 139 164 148 0.87046776621784294 24 3577 36 3557 19 4712
3937 9.5951807370919617 -19.894295113031745 1.2790910093230952 175 182 156 1.1778431051761817 24 5455 38 4796 49 4460 16 6510
6155 -3.991034830865956 -17.126460070840029 -0.31135983521230404 30 23 35 2.1635851359092833 22 3453 31 10638 85 8901 102 9714 103 10119 104 6368 105 6326 106 9777 107 9529 163 10761
3798 3.1802614837966106 -20.466558060895988 5.8451414327424551 164 164 118 0.96087807034521533 20 2838 40 3759 50 7138 45 7072 25 2724
6295 12.977628076527868 -16.760991986322146 -0.48236368534541085 188 197 201 1.051640417552546 24 3583 36 3559 19 4715
3938 8.8635804958058309 -16.745370958184893 1.3874587824857119 161 169 160 1.0208861707675871 19 5042 24 5448 36 4617 43 965 49 4509
6297 12.806969215481233 -16.752507772310235 -0.78580905396077383 73 76 103 0.87765807853846378 24 4783 19 4735 36 5597 43 3218
3940 12.964599642035482 -18.032077455325194 1.4337969425060355 193 205 241 1.6687614080777617 36 3393 49 4522 43 3040
6158 -3.7698593684837749 -17.326205920047791 0.13558916093523629 91 74 50 0.64690914766699292 26 4893 31 10817 1 1502
3801 2.0593829219663404 -20.632344493905705 5.8833636880729676 157 155 168 0.94279011149467229 25 2446 40 3780 50 7159
6298 12.690774651598035 -17.052503991167089 -1.3751935825750525 68 62 76 1.2557330491843233 24 1910 36 1633 19 4747
3941 4.1210047534623815 -16.588963267839983 0.64639724665740861 155 158 105 0.92380843451212014 24 6765 36 4671 43 3030 49 4546
6159 -3.9984516216763053 -17.096109454050168 0.076035803890297973 27 19 41 2.2258914992051113 22 4589 26 4895 31 10827 85 9760 102 9645 103 10048 104 6326 105 6279 106 9729 107 9488
3802 2.9963509981637002 -18.942966380401753 5.6906168158187977 109 103 98 1.0449355399323359 25 2477 40 3715 50 7174
6299 12.748263053855327 -15.844909299876031 -1.0258109056314184 175 191 201 2.1511341135543036 36 4779 19 4903 24 3637 43 3276
3942 4.1466499633517993 -16.67589623471186 0.64908564988528505 160 162 111 0.81967082581278705 24 6766 32 4029 36 3455 43 3031 49 4547
6160 -4.2491457165752227 -16.203410966218065 0.078685776834810914 33 22 44 1.3523486434315517 22 3386 26 5689 31 10830
3803 2.8911486443893071 -18.966807145641855 5.6870122258443496 139 134 110 1.5378196151381238 25 2476 40 3716 50 7175 43 3863 20 2501
6300 12.426238790621021 -15.043657287675456 -0.98310894805430049 108 128 122 1.5950301202902946 24 5671 36 6215 19 5001
3943 8.656238102719124 -15.826034260533046 1.0658454539676407 128 143 124 1.1678796942951728 24 4590 36 3419 49 4553
6161 -3.7724559577690697 -17.326152306019917 0.0020881652736404817 104 83 24 0.70253318752915694 1 1574 31 10833
3804 1.1787992437809502 -20.58377620741517 5.9476724602470616 211 212 230 0.84265327719692185 20 2889 25 2464 40 4251 50 7182
6301 11.944592153111349 -14.604844005758409 -0.12297585246470998 102 136 129 1.1655836718906125 24 6513 36 6576 19 5072
3944 8.8691852100745994 -16.920142272825647 1.0435129780446692 130 150 154 0.67338488930024287 24 5498 36 3424 49 4555
6162 -4.0664011927918891 -16.867647092410675 -0.046274922117176362 47 36 48 1.3190107354067346 1 1578 22 4611 26 4930 31 10837 85 9761 102 10269 103 10677 104 6961 105 6913 106 10328 107 10046 163 10854
3805 2.448093672819085 -18.721551311574256 5.4680172001169884 135 137 116 1.4822830973050583 40 2921 50 7194 25 1477
6302 12.559203453258663 -15.027367995012273 -0.13748659311677636 151 168 156 1.3500434944944188 24 6523 36 6577 19 5073
3945 9.6778006833315793 -20.225247914936794 0.89936334618168057 143 161 154 0.49794825502448553 43 3045 49 4564 38 4083
6163 -4.0365722358642575 -16.968065100352376 -0.10973798208850478 114 95 50 1.4156654617711337 1 1575 22 4610 26 4929 31 10843 85 9775 102 9677 103 10676 104 6350 105 6302 106 9756 107 10072 163 10861
3806 0.85673657269986958 -19.165603800075861 5.4296582466516652 187 185 188 0.96597312091756882 40 4241 45 7585 50 7258 25 2523
6303 9.1769194788976414 -20.744226696244279 4.6340272152953697 124 125 131 0.65719669990897611 20 2089 79 3943 24 4150
3946 1.4255045945257721 -13.774959277227204 0.40532549335529616 43 44 101 0.63958218436909442 22 4585 43 1104 49 4592
6164 -3.8313325006502406 -17.701913543917829 -0.17120347033780128 112 78 46 2.1844088027824875 23 7212 31 10844 81 7938 82 9251 83 9808 91 4265 163 10868
3807 -2.5266616759030236 -23.277612360056668 4.4081854181799374 40 35 97 1.2989748317638992 23 3473 40 4053 50 7282 45 7057 113 4859 116 4712 131 11578 134 11429
6165 -4.0105430604462731 -16.814510317263402 -0.16205309927827374 84 66 30 0.9636455875278559 1 1580 26 4931 31 10845 102 10292 103 10695 104 6992 105 6943 106 10348 107 10075
3808 -2.5313250171405648 -23.279890758875489 4.413651167233799 42 38 97 1.5554925601215857 23 3472 40 4054 50 7283
3947 3.1393213029753766 -13.284386817185437 0.49144534937539353 104 123 139 0.5213869934366121 22 5336 36 1369 49 4594
6166 -3.9806456451918208 -17.285341120225866 1.2523452105459236 90 74 38 1.5115909414705764 26 5574 31 10917 1 1275
3809 -2.5411923075268357 -23.035141833482534 4.4505453962494066 165 149 126 1.7244124327228434 23 3475 40 4041 50 7292 130 11461 131 11560 134 11628
3948 4.1812519159869517 -16.783388899556538 0.45649088270254823 90 90 81 1.0240792680514479 24 6776 36 4704 43 1119 49 4597
6306 9.7983136643065034 -18.60996701939872 6.0874847186111793 85 102 179 0.31106342265463538 24 2654 20 2156
3949 4.4424456211546293 -16.79700475623266 0.53058722699022443 93 97 105 0.026272764776155699 36 3459 43 1118
6167 -3.7620218237407377 -17.888492544094273 0.38665645417380556 32 22 38 0.52976598017651522 26 5663 31 10954 1 3576
3810 3.2495283616258055 -21.377157092745588 5.3600579472493211 127 130 122 0.75483752875253096 40 4540 50 7835 45 8099
6307 9.9433422053222795 -18.242811497089601 6.1840926590793188 100 118 187 0.60777063670678455 24 2668 20 2157
3950 4.4180962861065662 -16.917731569455977 0.45217043306235843 103 108 76 1.2232809094971981 24 6446 36 3476 49 4601
6168 -3.7744610634128657 -17.734399350738535 0.2894342204057978 70 51 34 1.4440028255896176 26 5664 31 10959 1 3579 103 11103 105 7332 106 10738 107 10802
3811 3.2341736385130728 -21.261499895093323 5.4694998708336806 155 156 129 2.415208738050322 25 3036 40 4541 45 8091 50 7836
6308 3.6600875682660292 -21.557244891900989 5.1148053691360253 191 189 124 1.2652114537448413 25 1996 20 2373 29 5341
3951 8.1061578727122487 -15.520573727770488 0.58348914375223249 46 17 61 1.0855863137296455 24 5554 36 4675 43 3085 49 4607 27 4183 32 4078
6169 -3.960531906317414 -16.573950837018376 0.22296795319850024 114 92 36 1.8440559755255328 1 1504 14 1193 26 5669 31 10965 8 3469
3812 3.4224931490552377 -21.172785369655092 5.4639521906495512 95 94 109 0.61964105701166139 40 4244 45 7728 50 7837
6170 -4.2956427109280915 -16.046099689576774 0.082504650620875628 25 13 41 1.4078159056098196 22 4593 26 4902 31 10970
3813 3.3527040159910304 -21.088711609621701 5.5241973252095962 153 150 115 1.5481758181388541 25 3041 40 4754 50 7839 20 3291
3952 8.7225647749455231 -16.086563397980555 0.81566242798364086 160 165 164 1.1408735768687892 24 5533 49 4610 43 4320 19 4639
6171 -3.8362293413144708 -17.662557358458489 -0.02448238405691067 112 96 55 1.7475556162407648 1 3622 26 6230 31 10975 23 8243 81 8142 85 10770 102 10707 103 11118 104 7426 105 7355 106 10757 107 10504 163 10996
3814 3.3888192758827249 -20.052091446656288 5.961604780584393 114 118 112 0.51191903077959577 40 4213 50 7855 45 7037
3953 13.01489989752438 -17.31093320979021 0.89723695653800295 110 142 162 1.1965822057637017 16 6564 24 4658 36 4684 43 1136 49 4616
6311 9.8952432016965872 -18.191141055960088 6.1710314826474173 78 88 166 0.38747668608448282 24 4147 20 2635
3954 13.01699065306728 -17.297488228466275 0.80460585372691984 48 54 119 1.9272544336908748 36 4685 43 1139 49 4617 16 6565
6172 -4.0037993676481527 -17.084067956788466 -0.056161240405811733 38 32 39 1.1638794051369881 1 3625 22 5901 26 5698 31 10979 85 10771 102 11027 103 11447 104 7757 105 7675 106 11073 107 10816 163 10997
3815 3.2739625848013114 -20.051298308552003 5.9544916722651706 132 118 97 1.0098258708943006 20 3114 40 4214 50 7857 30 3303 25 2927
6174 -4.0150440983766575 -16.845040802454061 -0.33336836772367023 38 28 33 0.92040602418013739 1 1656 26 5716 31 10995 102 10728 103 11140 104 7446 106 10775 107 10522
3817 3.1760734012734946 -19.903843548011039 5.9881896549293687 105 97 98 0.90579270355242048 20 3311 40 4518 45 8046 50 7864
3956 13.026743585208058 -17.791248715258419 0.80774397402050624 52 60 115 1.9369408585988845 24 4687 36 4688 49 4619
6175 -4.3422370109170787 -16.29256811708732 0.9866980513616711 102 78 54 0.32683505611205255 1 3499 26 6158 31 11034 102 10648 103 11059 105 7296 106 10695
3818 2.3006970424579678 -20.454807922643511 5.9061846950026426 169 165 149 2.2153182939007428 20 3328 40 4542 45 7675 50 7868 30 2772
3957 13.081132039090045 -17.862200882741892 0.8111429032116797 46 55 123 1.6552485662727818 24 4688 43 1141 49 4620 36 4690
6176 -4.2365178204621454 -16.664820704598256 0.32382995486042043 42 28 31 1.1925185544002452 26 6205 31 11057 1 3589
3819 2.5350354747086064 -20.103766281545706 5.99958698792509 175 174 145 0.89663838828044451 20 3132 30 3090 40 4240 45 7670 50 7869
3958 1.3808260021655865 -13.787540070583445 0.26117576424701244 126 135 126 0.46517939436494254 22 3370 43 1180 49 4641
6316 6.5273186279728561 -26.705396006458439 1.0840338247050514 92 85 134 0.40165304246146649 29 1354 21 3891
3959 8.1053520630091516 -15.614085022024751 0.54199025777706433 135 160 164 0.70193814586851522 24 5555 36 4712 43 4314 49 4657 32 4812
6177 -3.788568981103039 -17.498525518400566 0.083270757261024883 42 32 38 0.69383740671685457 26 6573 31 11069 1 4818
3820 2.562056964294146 -19.977424035955231 6.0066467269533188 180 176 159 0.73089129210756365 20 3133 30 2793 40 4234 45 7661 50 7873
6318 8.4213347208337481 -26.660204311026074 1.9531410886788816 202 212 223 0.052004854799273997 34 1703 21 5284
3961 11.75345004668891 -14.390968035707203 0.47462852871660838 124 162 167 0.81329527850312233 2 3701 19 4670 24 4706 27 3764 49 4663
6179 -3.9766084818828933 -17.114771578937845 0.019930673371628314 115 89 53 0.92905524809854567 1 3623 26 6218 31 11071 102 10708 103 11119 107 10505
3822 0.69719852833610785 -18.854146840251246 5.1387278698380596 139 147 150 0.40401053334394876 40 4230 50 7939 45 6830
6319 8.8147607537906367 -26.5134608049114 -0.81676407506658177 201 213 221 0.21763087648635426 34 2061 21 5520
3962 12.299867435479024 -14.720899267642197 0.58018539299221383 122 152 155 0.15674646551908017 19 4662 49 4665
6180 -3.9927592723932785 -16.977959135564582 -0.10530975812660613 114 88 51 0.67067282966178354 1 4819 26 6231 31 11078 102 11029 103 11449 107 10819 163 11000
3823 -2.634660436191163 -22.579192452487892 4.461270018197232 58 48 111 1.5270015793598235 23 6769 50 7955 34 6097 130 11831 131 11924
6320 6.8702235221924104 -23.573006459072918 2.8164553112738058 140 159 184 0.38069994597329621 29 882 34 1412 21 6044
3963 12.668841019980741 -15.652595285147594 0.62345360591300392 126 149 158 1.2101329950794828 13 6768 19 4665 24 4682 36 4715 43 1211 49 4667
6181 -3.5317820078322488 -18.710762019334883 -0.45010359309184411 205 192 83 0.66365764964780305 1 4841 26 6250 31 11085
3824 -2.8132963255920092 -22.69882625191573 2.9995062698697121 170 111 69 0.71188158510719735 23 5704 50 8025 79 834 82 8791 83 9334 94 9357 95 9471 96 9593 98 6325 99 6134 101 8386 110 6347 111 6365 112 6263 113 6291 114 8313 115 8478 116 6144
6321 6.8702235221924104 -23.573006459072918 2.8164553112738058 140 159 184 0.38069994597329621 29 881 34 1411 21 6045
3964 12.686837394040744 -15.741129943707207 0.40896865561080953 184 197 215 1.0907539678692935 13 6772 24 4707 36 4716 43 3131 49 4668
6182 -4.4063774923731476 -16.21459289217924 0.95805944015182554 22 15 56 1.1932374152852994 1 4734 14 2708 26 6550 31 11119
3825 -2.8264917590153602 -22.660166495417595 3.0433468862432762 66 55 84 1.1386198857791616 23 3738 50 8027 18 3680 82 7731 83 9332 94 9360 95 9469 96 9560 97 9739 99 4777 100 7734 101 7403 108 7256 109 7320 110 5171 111 5184 112 6261 113 5166 115 8479 116 5027
6322 8.0500102041094781 -25.24179489359841 2.8677605661667118 123 143 161 0.30139340148364185 34 1501 21 6128 29 1042
3965 13.06514320406794 -17.572182577443773 0.45840142939893924 115 67 75 1.0680118623558787 16 6325 49 4669
6183 -4.0566530969977457 -16.914595217400372 -0.07450839906997872 49 40 43 2.0436507189978812 1 4822 22 6211 26 6583 31 11133 102 11221 103 11649 104 7952 106 11266 107 11011 163 11034
3826 2.019381646821929 -22.930030384525608 1.5982539655932115 192 182 117 0.51068741485702907 38 2675 50 8147 42 2816
6184 -3.8981064091188617 -17.3584719902118 1.3033659554337731 44 32 37 2.2834465623904427 26 6533 31 11156 1 4704
3827 3.3767281727909153 -20.961297766589968 5.6113586023240121 122 123 110 0.68958218143912298 25 2916 40 4532 45 8076 50 8237
3966 12.772882512937416 -16.174548264536941 0.061152242958139709 187 204 233 0.78379419032413344 24 4726 36 4732 43 3172 49 4712
6323 8.5840656142473239 -25.329468400305398 2.4104040029746958 158 178 199 0.97579853987372189 29 3423 34 4696
6185 -3.9051482364921548 -17.366299622938577 0.94449633539912425 62 41 46 2.6584680812957813 26 6798 31 11160 1 5586
3828 3.2314649626646794 -21.08784325849717 5.5636869259932107 101 97 108 0.62996877068445878 40 4758 50 8238 45 8332
3967 12.985064591255719 -17.416262890920887 0.1798110546168121 48 50 67 1.906580608050767 13 6894 49 4715 16 6758 36 5560
6324 8.2002759723461516 -26.787262242277887 1.7039448515409314 151 178 188 0.20918766047620974 29 3503 21 6242
6325 4.7470772165268986 -27.279109792611884 -1.1237459873689346 103 91 109 0.32590072278804949 29 4981 21 6417
3968 1.6335667499711697 -13.80646821362145 -0.21660260556725364 101 91 67 1.396978052955717 22 3483 49 4742 28 9980
3175 4.2609083492941924 -26.512654117693373 2.352914230441228 122 118 121 0.92305458063538415 18 3808 74 5176 4 928
5532 8.9111894119379311 -21.669151172176434 -0.36930652600175473 58 48 61 1.7487208237406928 29 6639 16 7029 6 4648
3204 5.4408408322090347 -12.66467999203736 1.6508189848584132 119 102 106 1.0625122636490854 64 3632 71 3234 66 1185
5561 2.1909528954008772 -13.583049214839697 0.7532968157011225 101 87 96 2.1465507541815465 22 5319 71 1272
3250 7.6826997224534912 -16.279426950817307 4.0006548803709636 169 162 120 1.2491607918083154 64 3305 76 5773 66 2905
5607 13.033442910662068 -20.256558137948097 1.2009072798270157 157 156 148 1.202126573805617 4 4090 9 3680 12 6547
3321 7.7368277058441999 -16.472185767138814 4.5469378762884114 131 126 115 0.92964309730825934 64 6627 76 6308 66 5021
5678 -0.22420997152574254 -14.166291622826005 0.63763121626063124 203 193 99 0.75229017299255074 28 10113 11 2959 17 6150
4937 -2.774078433880915 -22.666295518668456 -0.35128299436574134 66 45 29 1.2956236375077179 14 1386 79 3124 37 7149 18 7257
4936 -2.7574218558455628 -22.828544869765757 -0.084926515976692526 115 49 19 1.5389530803265825 14 2870 79 3521 37 7144 18 7650 125 10752
4935 -2.768230003248132 -22.827517201119132 0.041157792334836976 106 72 27 1.1620817065647102 79 3515 37 7143 14 2869
4934 -3.0831922111467756 -21.673857937383232 1.1295570980518459 165 97 69 0.18608927286852156 17 4487 23 7084 81 8088 82 10082 83 10640 84 11069 85 10718 86 10352 87 10264 89 9797 90 8631 91 8249 92 8179 93 8280 96 10923 97 11105 98 7870 99 7653 100 9551 101 9200 108 9189 109 9229 110 7721 111 7726 112 7614 113 7651 114 10559 115 10714 116 7475
4933 -0.22816732270388873 -23.727700741552187 1.3523654365368964 218 186 143 1.3435315913758104 34 6545 37 7121 26 5580
4932 -3.0636942389240409 -21.962399088267659 1.9580557616956695 59 45 78 2.4689272414276768 14 821 23 7687 37 7107 17 5726 81 8251 82 10037 83 10595 84 10990 85 10646 86 10577 87 10503 88 10322 89 10022 91 8176 93 8238 94 10669 95 11032 96 11154 97 11337 98 7803 99 7580 100 9901 108 9148 109 9192 110 7654 111 7659 112 7842 113 7891 115 10931 116 7693 125 10706 126 9913 127 11148 128 8229 129 8781
4931 -3.0763246226104775 -21.969661560532373 1.9667999570565755 51 37 77 1.804386838195055 14 822 23 7688 37 7106 81 8250 82 10036 83 10594 84 10991 85 10647 86 10576 87 10502 96 11153 97 11336 98 7802 99 7579 100 9900 109 9191 110 7653 111 7658 112 7841 113 7890 116 7692 125 10705 126 9912 127 11149 128 8228 129 8780
4930 -2.6930623749243154 -22.748700116571168 0.22145690326297565 105 79 32 1.5064215100076066 1 3569 37 7068 6 854
4929 -2.1327904442769943 -23.291354280523692 0.85520788001367176 229 227 166 0.99774663802584218 1 1416 37 7062 26 4821
4928 -2.8201733232198145 -22.623396031545891 0.91195442650320413 218 208 93 1.363372890175131 23 7113 37 7059 18 6521 14 1061 88 10110
4927 -2.0478774999403195 -23.271106778744361 0.89780825346924564 153 113 83 1.0723626441231728 1 1337 26 4792 37 7057
4926 -3.0281519282912699 -21.675401664604344 1.2619418764659367 214 198 104 0.5758519533164983 17 3223 23 5975 85 10202 86 9894 87 9814 96 10459 97 10643 101 8646 108 8389 109 8429 111 6661 112 7186 113 7215 116 7042
4925 -2.8136154402170019 -22.674427039609068 1.5838686208840993 148 125 62 2.2490019468492637 1 1257 23 7713 37 7035 18 6471 14 897 79 3007 81 8262 82 10057 83 10620 84 11020 86 10594 87 10521 88 10054 89 9757 90 8576 91 8189 94 10685 96 10886 97 11063 98 7838 99 7619 100 9918 108 9166 109 9209 112 7577 113 7912 114 10513 115 10669 127 11162
4924 -2.8224567070608773 -22.632681661555463 1.7243798863355826 131 107 80 2.5244940003488829 1 3371 23 7020 37 7028 18 6472 14 899
4923 -2.9049278111908454 -22.515349758588599 1.7684246601274862 102 94 102 1.3681888268852298 1 1194 23 7021 37 7024
4922 -2.8428907286778342 -22.579746478871371 1.8418228130875893 198 177 87 2.3362512695006519 1 3372 18 6456 23 7005 37 7023 93 7628 94 10185 95 10267 98 6505 99 5062 111 5464 112 6493 114 10081 115 10649 116 6333 129 8381
4921 -2.8197117584349205 -22.611458169064871 1.9769810424832175 205 184 84 1.3045530379389556 23 7686 37 7017 18 7158 14 2591 1 3370 81 8248 84 11304 86 10573 87 10499 88 10320 89 10020 90 8960 92 8510 93 8609 94 10951 95 11030 96 11139 97 11322 98 8107 100 10159 101 9787 108 9376 112 7839 113 7887 114 10761 115 10918 116 7690
4920 -2.8243869259103498 -22.772669531611641 2.7362954664438708 118 64 56 1.7620130284691484 14 756 23 6931 37 6993 89 9244
4919 -2.4971381888820545 -23.377662798253532 2.9575409917293487 102 69 47 1.9667572190236529 79 2210 37 6992 18 6401 14 709 101 9491 116 7324
4918 -2.5045199374804903 -23.368528996665368 3.0393269274953494 167 120 51 1.7756710777346367 1 3224 18 5325 79 2209 37 6990 14 708 100 9834 101 9483 108 9082 109 9128 116 7325 134 11887
4917 -2.0155581729723617 -23.229549507552001 0.80122998286395963 120 89 95 1.9107581515410672 23 6042 26 4822 37 6908
4916 -3.0361618198361131 -21.834819387793125 0.76916472077549547 202 184 101 2.0626339350694161 17 3276 23 4379 37 6905 81 7416 82 8255 83 9705 84 9056 85 8682 86 9370 87 9296 88 9223 89 8059 90 5999 91 5722 92 5716 93 5810 94 9744 95 8886 96 9960 97 10141 98 5583 99 5383 101 7897 116 6516 125 10314 126 9544
4915 -2.7261426487784171 -22.94555265454899 0.92106084259658128 213 198 84 1.4552894419443005 1 1344 23 6046 37 6902 6 780 81 8096 82 9714 83 10658 84 11082 86 10365 87 10277 88 10109 89 9808 90 8626 91 8244 92 8196 93 8297 94 10742 95 10816 96 10948 97 11128 98 7902 100 9587 101 9235 114 10568 115 10724 125 10652 126 9860
4914 -2.5374112783193166 -23.349555529934332 1.2184371665514773 224 213 100 1.5321022300141027 1 3463 37 6892 6 715
4913 -2.992060448079914 -21.739777082745363 1.2229719597864357 209 195 81 0.51463772305269007 17 4486 23 4216 84 9929 85 8531 86 9278 87 9204 96 9878 97 9067 98 5439 101 7810 111 5671 112 5619 113 6634 116 6438
4912 -2.8070874094246046 -22.703933116903741 1.4997739964675842 120 90 72 2.1501503178089814 23 5925 37 6867 79 990 81 7786 84 10516 86 9867 87 9789 88 9656 89 9366 90 7930 91 7590 94 10229 95 10309 96 10428 97 10611 98 6573 99 6394 100 8962 101 8612 108 8352 114 10106 115 10255 116 7004 125 10234 126 9439
