# 3D point list with one line of data per point:
#   POINT3D_ID, X, Y, Z, R, G, B, ERROR, TRACK[] as (IMAGE_ID, POINT2D_IDX)
# Number of points: 354, mean track length: 5.5200378668349641
6440 1.6422442929094265 -13.744476814823011 0.18860176378037388 67 64 106 1.333390307521227 22 5897 43 5211 49 8081 64 3836 66 3289 71 1403
4084 9.6562702279862336 -20.360163791961469 1.3209990181884326 96 113 112 0.82585153523928234 24 7067 38 5948 58 8701 43 6087
6441 1.8104947072629067 -13.761957058014323 0.76355323220207894 76 64 81 1.1698950755149105 22 6542 49 8489 66 5244 71 5317 64 6175
4085 9.6360553597753356 -20.35972539256224 1.314156255553288 102 119 113 0.60644792106072487 24 7066 58 8702 43 6088
6442 1.2450575122539986 -17.620042616553025 2.4327479900846156 189 174 107 1.2640813860717444 71 4410 49 8673 64 6025 17 5673 76 5321 14 3586
4086 9.503744141177501 -19.697265528158148 1.3088722726295514 110 135 141 0.90606503045167397 24 7068 38 5947 43 6092
6443 2.1788540306004669 -13.685884600185462 -0.42721372595348445 58 45 63 1.6783989115201039 22 6745 49 8770 64 7744 66 6342 71 6477
4087 8.9997426757750922 -17.266144349218397 1.2648980868476667 68 72 131 0.41419261056933032 24 6944 36 6928 43 6099
6444 3.524034616969955 -20.620080875297493 5.7508160127697696 158 160 117 0.69016713085877668 40 226 45 2229 50 1862 25 332 20 823
4088 9.8428333528429786 -20.971063183981244 1.1254619187897459 134 157 136 1.1481417511272176 38 5828 43 6101 24 6945
6445 2.8897070798295772 -18.83695608801623 5.6193626506362966 114 105 92 0.39858220727640364 43 26 64 2910 50 2019 25 1449 40 1794
4089 11.80495009998096 -14.469075375183875 -0.32590447155035002 105 141 155 0.95573258325737243 36 6786 43 6119 24 6971
6446 3.4766165053100067 -21.026578984233321 5.5567307661268517 149 144 113 1.0921996642153107 40 3025 50 4311 45 6239 25 2020 20 2396
5337 8.3911587479649761 -26.695361444354067 -0.024517340281898062 60 49 63 0.8628127207950087 72 2273 63 6580 210 8519 205 5156
6447 3.2435796675150068 -20.861702499822957 5.6836844344602495 158 157 126 0.66098137195793716 40 3032 45 6206 50 4354 25 2026 20 2418
5338 8.3911587479649761 -26.695361444354067 -0.024517340281898062 60 49 63 0.8628127207950087 72 2274 63 6581 210 8518 205 5157
4091 13.248174059079993 -18.233325739164538 -0.35949407748464818 180 195 200 1.4068257479633428 16 6997 24 6816 32 5525 36 6944 43 6122
6448 2.4922443269903884 -20.032326853819765 6.0080090175489564 131 125 116 0.65745063260963388 40 3020 45 4424 50 4434 20 1906 30 1534
5339 8.2459061353412757 -26.722546890319428 1.8281627073626716 213 219 220 0.63441263769741763 21 3791 63 6748 4 1077
4092 8.2000754961615439 -15.777352800968695 -0.65940210701780777 76 82 102 1.1774318730620112 36 6948 43 6127 24 7085
6449 2.972609499784796 -21.212670903834724 5.5096046498096261 162 164 133 0.60921492972619318 40 3781 50 6033 45 6233 25 2427 30 3065
5340 8.6230130775838667 -26.548007513662213 1.6161490023338536 186 193 179 0.90165259405106113 21 1420 75 7758 63 6762 205 4994 204 5868 201 8803 200 7209 195 6985 194 7594
5939 -2.7522981417988208 -22.82223463049441 3.5837392132553205 109 69 48 0.57073783892689878 18 5250 1 836 79 2178 219 8870 208 7407 111 6306 110 6282 109 8142 108 8105 101 8350 101 9019 100 8683
4123 2.8095615217078316 -22.642423764044931 0.1122827798369901 197 195 147 0.54355943690496022 38 3070 42 3192 21 6309 204 6873 200 8330 199 8833
6480 6.6747156162933354 -21.745482863437214 2.4113066784548387 94 92 125 0.94764892419385272 21 7804 38 4707 29 6576 4 5885 201 10181 195 7992
5371 13.287993149188315 -20.197055075804759 0.94282472048743315 214 221 204 0.70604402296470237 9 2668 12 5771 4 1170
4124 0.79096897127728372 -23.55603549486209 1.1711336649142385 143 75 136 1.7872741210828014 38 5575 42 4245 23 6973
6481 -2.7250822211155294 -22.843271845744574 -0.40441343838586785 58 47 34 0.79889826976840972 79 3802 37 7220 18 7889 14 4555
5372 12.45979138327332 -20.820230469406212 0.95288346293845327 159 159 149 0.5763135173494881 12 6140 4 1171 9 2663
4125 2.4863191078141855 -23.197427747885573 0.37916835908696228 204 201 161 0.26745189015952536 38 4854 42 4382 34 1874
6482 -3.5212565788667094 -20.230271308938946 3.279367062359924 69 55 73 1.1827154959982067 17 4267 40 4936 23 6865 26 4548 76 3341 219 8918 208 7951 166 9588 140 8411 139 12163 127 10634 116 6840 115 10099 114 9933 113 7027 112 6980 111 7077 110 7051 99 6957 98 7161 93 7507 92 7401 91 7458 90 7798
5373 11.76735320081294 -21.015548321230082 0.89058382088326216 71 67 64 0.54343466244803873 12 6138 16 4550 4 1177
6483 -3.3699680015929165 -20.092765547260392 4.1533785078513468 109 77 64 1.2908725009296036 14 514 26 4469 23 7559 76 4493 166 9515
5374 10.99896886871994 -21.208997591807282 0.82407146592202074 136 129 137 0.53857366210995383 6 3448 4 1189 12 6136
4127 2.4686682243958833 -23.196091966961959 0.24840750290122407 202 198 157 0.24777430684010074 34 1907 38 4873 42 4399
6484 -3.5384967519816701 -20.103531059602368 2.7646933169183172 190 163 91 1.0323503543189649 23 6915 26 4605 14 726 17 2997 76 3364 219 7929 208 7527 166 10022 140 8433 116 6894 115 10164 113 7098 112 7052 111 7128 110 7107 99 7013 98 7745 97 10978 96 10800 95 10193 94 10106 88 9547 87 9650 86 9738 85 10069 84 10402 83 10098 82 9548
5375 10.777631001185799 -21.266812656336167 0.32026784075646114 132 133 131 0.9988508192379324 12 6384 16 4629 4 1301 6 2466
4128 0.35763256207650346 -23.59387285261597 1.4527710674098753 212 207 156 1.2595399582678537 34 1643 38 5772 42 5007 23 6958
6485 0.66280610600913092 -17.437727285651881 -0.5918754121677906 111 102 93 0.64622989785868312 17 3570 26 6637 14 2956 1 4895 219 9902
5376 10.993968476518653 -21.206429854816729 0.27710761106880799 152 171 139 0.60823444146692063 12 6391 16 4636 4 1315
6486 3.401829245974386 -13.315187285618894 0.85929725444590788 185 176 149 1.782449843595816 17 6360 11 2434 22 6392 66 4432
5377 3.9101198411706322 -25.482043424933572 0.27430168600743421 53 42 71 0.55993682900477759 18 5576 4 1322 74 5369
4130 0.93093796626402137 -23.523538924924019 1.1737883264495612 155 121 146 0.50439478576604468 38 5580 42 5071 34 1718
6487 3.4013093322436121 -23.718632745028973 0.013306261193333575 207 214 198 1.2430870638679177 18 5591 4 3130 62 7764 14 1202 71 5863
5378 13.019580890214728 -20.724905519827754 0.28897618055034385 157 159 148 0.86374729091166458 12 5852 4 1323 9 2706
4131 2.7605317112043481 -22.651289010395967 0.23869637556019552 218 218 204 0.27158379048636888 34 4872 38 4875 42 5169
6488 3.4331428371444224 -23.865492451281597 -0.75639925243030559 217 221 203 0.91929111495858884 18 7281 4 5031 14 2984 62 7793 209 8721
5379 11.784946922443549 -20.977234902796816 0.26493556998168172 85 56 51 0.56787020138442734 12 6397 4 1324 6 4147
4132 0.30603946672271509 -23.642793246755506 1.2479352051331685 202 201 172 1.6245178910818376 23 6991 34 1688 38 5559 42 5622
6489 -0.5452825751283108 -14.042918012707881 1.4065804486249376 209 196 127 1.004425462773046 22 5835 64 5133 71 4505 64 6121
5380 11.625383486512325 -21.015038410761985 0.15644723358968948 167 160 134 1.0501759036175871 12 6400 4 1346 6 4162 210 8475
4133 -0.13469233627773639 -23.749146034688636 1.1670161216572021 195 158 125 0.90835607613507163 34 1709 42 5627 26 3433
6490 0.94249944325268742 -14.885384064622226 -0.96527652251324236 55 40 74 1.5696369373650336 71 4638 64 6261 22 6258 66 4537
5381 13.051343284522426 -20.313437478071823 0.06183132829646254 89 84 77 0.43070933878252066 12 5867 16 3408 4 1363 205 4619 202 3243
6491 3.413737763810059 -23.805962794559516 -0.34205039271847598 206 208 194 1.2729580724089087 71 6484 62 7891 14 3886 18 7662 62 7961
5382 13.551905151845485 -20.162722193757212 0.044799507700237641 109 104 97 0.36369985782484121 12 6194 4 1366 16 1322
6492 -3.5578726903314002 -20.188527661891595 1.8719384568366211 186 149 67 1.0142528156758537 39 5895 47 6004 17 3147 76 1491 23 5849 219 6598 81 7741 208 7670 127 10763 116 6978 115 9650 114 9475 113 6537 112 6498 111 6577 110 6572 109 8358 108 8321 101 8563 100 8908 99 6315 97 9958 96 9773 96 10394 95 9648 94 9543 93 6845 92 6730 91 6772 90 7052 89 8760 88 9043 87 9126 86 9200 85 9505 84 9832 83 9538 82 8993
5383 3.6848110566433037 -24.785305739191482 0.001846977576141528 227 228 219 0.69039936188556883 14 1213 18 5596 4 1368
5952 -3.5603237654596711 -18.694457546240901 0.36694534643164223 221 207 77 0.44015013839914752 17 1610 23 6126 14 1148
4136 -0.87149293548739482 -23.459309255843586 2.4220177474625801 201 199 160 2.7210533445453744 34 4485 42 5938 37 6795
6493 -3.3148000309443444 -20.881386960532762 1.8428613307188126 122 84 49 1.4669674701919353 39 6312 47 7052 17 1135 23 4048 76 1508 219 6597 208 6976 128 8054 127 10765 126 9670 125 10457 116 6352 113 6535 112 6499 111 5482 110 5459 97 9959 96 9775 94 10191 87 9123 86 9197 85 8347 84 8745
5384 5.3861901411049526 -23.009723033101572 -0.042451077513460167 219 228 237 0.12761985051269836 21 4040 4 1372
4010 9.9252132748884208 -21.034360546774046 0.60171820247863039 84 96 119 2.0897927322912344 24 6481 38 5349 43 4320 206 5196 202 4764
6367 -3.0988839367883494 -21.644692098639563 2.177261746685565 208 181 63 0.52627787329679687 17 4357 79 2254 23 6983 219 8015 81 7710 208 7620 131 12237 130 12220 116 6960 113 7146 112 7108 111 7198 110 7184 109 8839 108 8803 101 9148 100 9486 98 7290 97 10563 96 10376 89 9316 87 9713 86 9792 85 10119 84 10457 83 10173 82 9617
4137 -0.18112035061111667 -23.703147288497242 1.4402008952962024 219 190 153 1.1575253149372979 34 4698 42 6017 37 7116 26 3391 23 6988
6494 11.754062662258127 -14.386765744502567 0.19582630038115723 139 169 166 1.4318088452155788 27 3769 49 1892 2 3707 19 4678 24 5597
5385 8.3958766451621756 -26.675897375062913 0.057579737688464715 228 235 236 0.97901342351229093 29 1489 4 1378 210 8822 204 6439 201 9425 200 8132
4011 7.6459530969234644 -21.730292556741862 0.49901483140213965 143 154 114 1.0006606512227894 21 7546 38 4848 43 4321 61 5632 205 6040 201 10118
6368 -3.2007047924720613 -21.290894663103042 2.0062514911851248 75 57 51 0.41296016271982849 17 3086 79 2271 23 4022 219 6539 81 7224 208 6934 111 6547 110 6543 109 8346 101 8553 87 9092
6495 13.017046025765394 -17.470464606345335 0.8905924048066729 105 98 123 1.5231495680535299 36 5519 49 6339 24 4657 43 1125 16 6736
5386 12.57680348448968 -20.815366016387241 -0.065958412063167479 210 215 201 0.52020511029122607 9 3160 12 6207 4 1390
4024 0.62347188468370263 -13.978134243258699 0.070078553943869026 179 180 160 0.6951580053740426 22 5370 64 1707 43 4371
6381 2.9634007592913449 -20.61220346553835 5.8033786230277409 194 188 127 0.88867338221240966 30 3085 20 2851 25 2720
4151 1.0256710103435227 -23.617530423965132 -0.1978944212090957 172 171 111 2.3226934702003659 38 5858 42 6399
6508 -0.90553687331013755 -21.070999805525474 -0.98283063634866541 79 60 37 0.71915101418184491 6 4240 23 8674 1 5716 14 3932 6 3627 219 10305
5399 10.392693934895281 -21.360262105538116 -0.46778605882495355 202 210 178 0.59980258710387613 16 5603 4 1482 6 3600 14 5497
4150 2.6497514591212261 -22.678578964672703 0.39203022364590573 169 168 156 0.67842272849100194 38 5957 42 6376 34 9113
6507 3.4203857267297044 -23.806571307481434 -0.34312122073698281 211 212 203 1.6417052260304708 18 7661 4 5458 62 7962 14 3885 62 7890
5398 11.622336273608891 -21.06369286341307 -0.47290499141276143 161 167 150 0.93199405895603726 12 6441 4 1476 6 4228
4149 -0.089621060937475031 -23.702330222215039 1.3488726330148473 222 201 166 1.1092009942386583 34 6554 42 6324 26 4740
6506 3.7726148476248209 -13.134541590786672 -0.74057919120708571 109 92 72 1.2246515164185756 3 5731 11 787 22 3596 17 3618
5397 13.400358841747661 -20.198589709482849 -0.45001217671904364 130 125 112 0.93990418607996329 12 5938 16 1577 4 1471 9 1912
4148 1.0755010767159769 -23.490530337344094 1.5296763151593529 251 252 247 1.7813986583515213 34 7831 38 5929 42 6322
6505 -3.4125683470091812 -20.667770634896538 3.5765311936509181 56 44 68 1.722680477701138 17 5107 40 4812 14 2467 76 5294 23 7586 26 5427 219 8887 208 8266 140 8456 139 12206 131 12179 130 12057 127 10918 116 7290 115 10076 114 9906 113 7470 112 7445 111 7547 110 7544 109 9102 108 9065 93 7475 92 7365
5396 13.400180525211658 -20.198374310109347 -0.4510832417523426 138 133 118 0.94742664038098556 12 5939 4 1470 9 1913
4020 4.1144912182987818 -16.498136514820569 0.11938995463017631 161 165 115 0.38898163467142116 32 4828 36 5561 43 4358
6377 3.6075224271450179 -20.697098415294885 5.6826186444419253 184 179 121 0.91148927443140781 30 2795 20 2390 25 2432
4147 1.3006082720975201 -23.482553238703389 -1.1177767585787735 174 175 124 0.98460952576119931 34 6805 38 5882 42 6145 26 6292
6504 2.1990761153728116 -22.765899665171425 1.7920587938071397 230 230 233 2.1421260467431291 34 8586 38 5928 42 6540 21 7880 29 6845
5395 12.357760536902218 -20.880275780928098 -0.41184780182743813 184 205 170 0.96114614515331276 9 3176 12 6229 4 1466
6376 3.6600978812261049 -21.557269211028697 5.1148444556208403 191 189 124 1.2677505594316083 25 1998 20 2383 29 5342
4146 -2.0844730024605922 -23.027794285097201 -0.10549562431091611 118 90 71 1.1275181372268275 34 1991 37 5874 42 6120
6503 2.6270429660056576 -22.687861961534342 0.71953945659766894 179 180 148 0.99105057624853166 38 5608 42 6081 34 7886 21 7822 29 6619 1 6118
5394 12.143679692393677 -20.931913084595202 -0.4096676322842786 188 204 165 0.90209217769527539 12 6231 4 1462 6 4220
4145 1.0478655679501967 -23.565944150912358 0.29342011997962442 225 220 208 0.8381230559671371 38 5840 42 6092 34 4863
6502 0.7223812249642918 -13.953090276812151 -0.23442593366390199 175 163 121 1.6805570329862729 22 6226 64 5266 43 5796 28 10094 66 4494 71 3432
5393 12.464264975516967 -20.842338964984489 -0.4070440518128261 153 157 148 0.9236309766731271 12 6227 4 1461 9 3174
6501 7.7180169698674312 -21.89093092945663 -0.27272723425617512 160 169 115 0.89925424315909575 21 7745 38 4905 43 5245 61 5657 68 5879 205 6077 201 10265
5392 13.532669410374796 -20.157069116722173 -0.38662450437779267 136 133 122 0.46275420870420242 9 2737 12 5928 4 1452
5959 2.9907172045879165 -22.608570992981988 -0.57910519779775471 101 90 106 1.0451871675490436 21 7345 29 3751 1 1746
4143 2.5055570726958964 -22.714132095499203 1.0765369636608491 188 183 189 0.34324353681138126 34 7863 38 5808 42 6066
6500 7.9841493032545214 -22.53610620522916 0.13127700150535998 140 148 104 1.2422824976303177 38 3039 43 4356 61 5412 68 5605
5391 13.6601925288877 -20.10859693000695 -0.27922577056411441 165 175 156 1.1030215643808541 9 3169 12 6218 4 1428
6243 -1.6108225174635551 -24.032494609262127 1.1464220226837325 227 205 29 0.28071546931011104 18 6508 79 2300 14 998 219 9789 208 8386 115 10951 113 7926 94 10981 93 8636 89 10040 88 10343
4015 7.7166002288316005 -22.033123608502873 0.39541410286963585 96 91 102 0.8354857099909595 21 7280 38 4162 43 4336
6372 7.9682391583190082 -16.506040698562018 4.7082864607942714 111 96 102 0.35436227878888849 76 4346 20 566
4142 2.447555809416424 -22.727997243602847 1.2272868488787063 198 195 182 0.67673150231211066 38 5806 42 6058 34 8619
6499 4.4226575896464295 -16.89384797408167 -0.38152062013397198 144 137 84 0.61344976597386647 36 4779 43 3237 66 3343 64 3910
5390 9.1288211187988288 -21.44342673995482 -0.21836281753032091 110 99 74 0.47379365447928468 6 929 16 6375 4 1419 210 9028
4014 13.214708018405538 -18.013123936571613 0.61333043255080899 136 157 157 1.1115732786380472 16 6746 24 5572 36 6174 43 4334 206 4902 202 4521
6371 9.1769164311647646 -20.744221346492903 4.6340267806828734 124 125 131 0.66028032894274469 20 2093 79 3944 24 4147
4141 -1.5904826240528804 -23.077777126046673 0.76805969176117495 129 90 137 0.34496017215046798 23 1647 42 6047
6498 2.2121194961090498 -20.56700547497886 5.8768257957807082 194 192 182 1.7604259517885785 40 4770 45 8312 50 8255 25 3049 30 3416 20 3467
5389 11.79717982804377 -20.943043666300184 -0.15777538384128884 104 98 89 0.66487037224023215 12 6213 4 1405 6 3562
6370 -3.1349590615694551 -21.499412762813531 2.6021815120117666 189 116 30 0.3007892961897074 17 6069 79 3743
4140 -0.090185402741907394 -23.703777007204529 1.3568774880212842 213 188 157 1.2300670982693553 23 7678 34 6553 42 6025 26 4739
6497 13.184028127811718 -18.157594377399295 1.1838858390373539 211 217 242 1.2043894832969619 36 6137 43 4297 49 7339 24 5543 32 4047 16 6553 206 4886 202 4509
5388 6.8573681410841312 -27.005914579028143 -0.088449618177201303 109 85 72 1.2674691333817887 18 5607 29 1516 4 1400
4139 -0.02480334034298879 -23.683963682746366 1.3894684932115708 245 238 209 0.73871292073882466 23 7670 34 6545 42 6024
6496 2.2437543937604878 -13.535437948178624 -0.0019789950461321214 86 73 67 1.6121819248470521 27 4506 64 3861 66 1415 71 1431 49 6403 22 5378 11 2069
5387 10.94322293966335 -21.228733404834063 -0.11465816409548081 131 145 123 0.8798887954184037 12 6413 16 3449 4 1396 210 8067
6479 2.9819217701813661 -22.610993724513342 3.1397991324959951 183 184 162 0.80966148749308098 34 4411 38 4593 25 2878 29 5472
5370 12.279256349430566 -20.873834625257395 0.9649483128105415 122 125 118 0.27496955707476095 12 6137 4 1160 16 4551
4121 2.1182819878511547 -23.291822070439967 0.25234795518046882 214 215 205 0.097920228205709212 38 3016 42 3172
6478 3.7710773013725571 -13.131004382846591 0.28060406775102609 112 103 86 1.0826039906768039 11 2796 22 6204 36 4716 17 6380 22 6409
5369 11.896519153506254 -20.951513028648598 1.0033487175000928 170 179 165 0.42761783685805121 12 5759 4 1148 6 2294
4120 2.1592322018394059 -23.277231229735072 0.27542433752941248 195 193 139 0.96326095879712215 38 3010 42 3164 21 5353 199 8614
6477 0.69683372828482604 -19.297008432608539 5.5116899635180925 174 177 164 0.67895760153678597 40 3774 45 6884 25 2520 20 2911
5368 11.066547945820474 -21.151114883369189 1.0092484815711686 134 130 142 0.28568746368506087 6 3425 12 6560 4 1133
4119 2.0923036737763745 -23.287465353248219 0.3342640545117429 192 190 133 0.69180410778542623 38 2986 42 3152 21 5335 199 8602
6476 2.6492266809433382 -20.258855491015549 5.9693055411308755 179 180 143 0.53997547983796945 40 1918 45 4497 30 2280 20 1882
5367 13.258102457959223 -20.19410405482283 1.0501285104354159 218 225 204 0.56543192337791293 9 3131 12 5758 4 1132
4118 2.3108494103174664 -23.241697050659393 0.37632654702979995 209 207 144 0.77021612351536839 38 4151 42 3146 21 6263 29 1380 204 6853 200 8073 199 8277 199 8817
6475 2.0895645455798544 -22.812890878127842 1.7844084120805932 186 180 150 0.70266378792658757 38 5927 42 6541 34 8587 21 7949 29 6846
5366 11.839236472499501 -20.93828631474673 1.1251848337979482 144 143 142 0.38306158191743656 6 3391 12 6125 16 4500 4 1116
4117 2.3431550494202411 -23.229914382521915 0.4375511822417622 203 199 140 0.44850247585066733 38 4136 42 3133 21 6250 204 6995 200 8469 199 8802
6474 -0.13218182910132889 -23.697134399877328 1.411339061124764 250 245 214 0.38738680118156704 34 4703 42 6020 23 5832 26 3393
5365 9.6418314814091843 -21.563620027927385 1.8609139438178546 130 126 147 0.78842308435244757 16 5281 29 1154 4 930
4116 0.34220530723431264 -23.611414438256219 1.3909773072960254 187 173 136 1.8708886323926823 23 3922 38 4645 42 2865
6473 2.5904139854980932 -22.688693978053262 1.063107050713721 233 232 226 1.0074105173414969 34 6575 38 5300 42 5647 21 7516 29 5630 1 3379
5364 6.1721354971511317 -27.19283195640228 2.7132821025231673 148 164 172 1.2944452954701027 29 1077 4 920 21 5173 18 5334 214 9169 204 6561 201 9910 200 7993 199 8735 194 8162
4115 -0.0028112420547721758 -23.68737573637441 1.3608269897508647 245 235 193 1.6041344977959759 38 5201 42 2856 23 1107
6472 0.58859511551048316 -23.553077490803911 1.3829039342780822 243 234 199 1.7016496923891353 38 5552 42 5024 34 1657 23 6955 26 4711
5363 4.2609164968864999 -26.512640301367803 2.3528924998091094 122 118 121 0.91989463086493506 18 3820 4 913 74 5176
4114 2.3263720913447781 -23.232112876932366 0.28577265942454999 204 202 141 0.46713130973072114 38 3003 42 1290 21 6276 29 1404 204 6862 200 8319 199 8606
6471 2.7139885215044504 -22.670958955078728 0.27863855772682133 181 177 141 0.510887725257685 34 1891 38 4172 42 4397 21 7274 29 4851 1 1443 204 7136 200 8665 199 9109 194 8717
5362 6.1131736522286806 -27.174106395224804 2.7603753500209707 199 210 204 0.80820112809401867 18 3731 21 3632 29 1063 4 905 65 10044 214 8606 204 6229 201 9243 200 7630 199 8145 194 7885
4113 0.15475510146295895 -14.077925733795606 0.31818545101467655 160 158 135 0.92855728294096262 22 6787 64 7735 43 6747
6470 2.7825881552989991 -22.655902066561797 0.16920813130382989 190 191 139 0.40257994453413659 38 3058 42 3183 21 6296 29 1430 204 6865 200 8324 199 8821
5361 6.5385682405581083 -27.123207354998677 2.8373643573449621 168 185 178 0.91767826878991876 18 6363 4 903 21 5165 200 7627 194 7881
4112 12.748001683764487 -16.456459374828928 -0.77714011149834472 181 194 204 2.5055359452815185 19 5293 36 7155 43 6643
6469 0.75419098871581269 -13.948556535616518 0.18929925986568574 63 51 108 1.7193372312833302 22 6661 64 7248 43 6634 66 6087 71 5868
5360 6.2063007757071329 -27.147458000504745 2.8744558604568939 202 212 211 0.89828558423706595 18 3714 29 1049 4 884 65 9745 21 1078 214 8597 204 5731 201 9230 200 7074 199 8131 194 7493 188 9486 187 10419 179 9357 178 8274
4111 13.402580870999495 -18.502002542419145 -0.7002728414593663 191 204 198 2.1014448322054178 16 7077 24 7165 43 6642
6468 -0.62988189769803415 -14.315366423931923 0.49108069697054874 101 80 94 1.6930629732445004 36 6559 43 6318 17 4605 22 6198 71 3359 64 3799
5359 6.1846064709266839 -27.109612777455951 2.9453259657205413 205 211 199 0.63670989061225625 18 3686 4 863 65 9743 214 8579 204 6205 201 9218 200 7606 199 8117 194 7863
4110 13.0883077927122 -20.441212179762836 -0.46749696213573644 54 53 101 1.5806273538730677 24 7233 43 6639
6467 -0.68609441109647062 -14.327656022316226 -0.66709713309627194 179 173 88 1.316852275431303 36 6599 43 6144 11 1605 64 3929
5358 7.350333411418446 -25.496441815700813 2.7669166668153822 183 198 180 0.79371083525022368 18 6304 4 857 29 1045
6466 0.74194402315618535 -13.943775506207414 -0.10634848995732418 64 44 82 1.6840905921837681 22 6219 64 5263 43 6120 66 4491 71 4579
5357 6.2757357517748451 -24.567808021472729 3.1405792738161971 196 209 209 0.789913566475 29 3276 4 694 21 6053
6465 7.9894331482524716 -22.557492929756407 0.26896843539035492 121 134 96 0.99035714205194236 21 7552 38 5370 43 5773 61 5714 68 6086 205 6169 201 10255
5356 6.7050810366633256 -21.753900394574973 2.3146669998061045 207 208 196 0.55423344330042035 29 910 4 693 21 5982
4107 12.521671469954597 -18.086936243976822 -0.84472019908538298 167 184 189 1.7668033586068161 16 7058 24 7169 36 7156 43 6521
6464 8.0467212531627581 -15.553356842280648 0.71508000196923505 61 54 86 1.2699771868217657 32 4060 36 4682 43 3078 24 6110 27 4178
5355 4.256637710640919 -22.294223963674693 2.5676217382377753 97 89 113 0.81612325489072901 29 665 4 483 21 6653 194 7659 179 9559
4106 12.602030535720186 -15.274725395855802 -0.49571632008714389 110 128 137 1.5821792256592175 19 5246 24 7079 36 7082 43 6516
6463 9.468910046573523 -19.649116968893036 1.3767268098853123 98 114 145 0.54570356998016878 24 6045 43 2954 32 4773 38 5314
5354 7.1943797569544321 -26.623237862251294 1.7258767589077153 81 73 94 2.7306620449625378 21 7260 63 7166 29 5653
4105 7.9410885413248451 -22.298145770923721 0.32792729423602157 79 89 107 3.5015431815512454 21 7905 38 6059 43 6513
6462 2.2583759152834251 -18.748551317826809 5.453161740892992 154 153 112 0.43759707218717098 40 1812 43 2349 25 2139 64 4646
5353 6.1876124672531052 -25.467830800309848 -0.63837064852238878 54 46 71 0.81919997019893909 21 5530 63 7149 4 1508 29 1624
4104 9.4840819962817324 -17.825686604435646 1.2842484558054368 65 63 122 1.822550428932302 24 7219 36 7140 43 6500
6461 12.495255462850778 -14.954066560670025 -0.58683634915621796 138 163 158 0.98864189681354209 36 3546 43 1344 19 4709 24 3556
5352 5.0534444011892514 -27.436291058469983 -0.00097011569685103197 87 74 82 0.82296677143011254 18 6587 21 6922 67 1517 63 7095 4 4231 204 7042 200 8510
4103 9.7693371237204811 -20.083095201720027 1.3307637493744076 171 176 178 1.0869634668321275 24 7217 38 6124 43 6496
6460 3.4645441735601001 -19.864730957673768 5.9889415807329236 166 166 127 2.133050718100125 25 3280 40 5036 50 8902 20 3664 30 3672
5351 5.0601470745089676 -27.426468760616643 0.21313496387566774 76 67 93 1.486703919635247 18 6569 21 6336 67 1516 63 7089 29 3597 204 7034 200 8503 199 9024 199 9130
4102 6.7981226902691212 -22.097037924450728 2.1336640591741154 98 111 123 0.98212016163206262 21 7991 38 6045 43 6484 201 10404 195 8196
6459 1.2036547564355067 -18.304053830758523 4.6667467210128351 171 169 143 2.2260175139977427 64 6625 50 8731 40 4504 43 5564
5350 6.0791684371596562 -27.191091661201412 0.79816567025474727 68 48 41 0.46252549704598317 21 6883 63 7085 4 4931
4101 7.8813672313949983 -22.287838471338478 0.64766937843902517 129 158 136 2.4058331026135846 21 7824 38 5831 43 6321 205 6278 201 10353
6458 0.87726974065429364 -18.993946784201526 5.3428271033793431 175 176 182 1.6772615939541256 25 3170 50 8723 40 4898 45 8429
5349 8.1346017601457365 -26.723143569656425 1.6938804407905843 143 164 169 1.7896490907213412 21 6240 63 7078 29 3493 205 5871 204 6845 201 9955 200 8300
4100 0.16687511290671386 -14.09057759105638 0.49266946854276694 171 174 150 0.8184033796082969 22 6406 43 6319 28 10089
6457 3.5949298897187743 -20.811918221760799 5.6424170658600037 134 122 102 0.87736959467712927 40 4982 50 8702 25 3224 20 3606 30 3613
5348 8.3422621740709406 -26.718740986003738 -0.0039421457665402559 43 37 59 0.81397468841571285 21 6357 72 2305 214 10102 210 9206
6456 0.96126409578096439 -19.101782735582788 5.4331210201966913 83 74 112 0.99483103402127537 40 4753 45 8000 50 8282 25 2957 20 3162
5347 8.8689319713093919 -26.528682620531956 0.70880542216610309 161 166 136 1.7754718977872095 68 6073 72 2292 63 7014
4098 7.7511604391989799 -22.312338946623917 1.1074338082369026 67 70 92 0.81064292929695336 38 5827 43 6309 21 7895 205 6314 201 10380 195 8186
6455 3.6664559624691879 -19.751898924459528 6.0089124681116548 129 126 104 1.2085545551072934 40 4211 50 8251 25 2458 20 2823
5346 8.5631480243361739 -26.571337138472327 1.6543458419982966 164 175 159 0.53019138939418209 21 6242 75 7896 63 7001
4097 0.13148704219597157 -14.101685965498937 1.2183163717935266 180 177 152 1.5580286382260948 22 6388 43 6298 11 2759 64 6131 28 10086
6454 3.2739873536172452 -20.051296857814137 5.9545043903239474 132 118 97 1.0113971921866154 20 3113 40 4218 50 7860 25 2923 30 3301
5345 7.9665614234319788 -26.789146301616434 1.0357517033661152 198 204 190 0.33676806994529113 21 5360 75 7976 63 6917 205 5892 204 6875 201 9721 200 8328
4096 3.2703993604025321 -17.180864036654668 3.0362692428878697 115 130 132 0.87341868395362354 36 7037 43 6273
6453 0.85706617631582416 -19.164488884933771 5.4312795823490516 191 189 175 0.87112787550647897 40 4242 45 7594 50 7251 25 2525 20 2912
5344 8.4538933392322271 -26.601511408372247 1.8425533077957139 194 200 191 1.2661900519040916 21 3789 75 7753 63 6896 205 5382 204 6306
4095 3.8351997939647342 -21.249420540977571 5.3478059195574614 126 130 101 1.1197472914574593 40 4754 43 6242 25 3031
6452 1.9995182643898231 -21.171851528302728 5.6595254924528877 203 203 191 1.3276417707296784 40 4252 50 7148 45 7699 25 2716 20 2878 30 3266
5343 8.8376317228705101 -25.892253215541526 0.12271941451707867 215 218 205 1.4427956094336976 68 5604 73 1286 63 6808
6451 1.0988597873869361 -18.990224559910221 5.3917032573054628 169 164 140 1.8071285263978021 40 3753 64 3004 50 6199 45 5887 25 1536 20 2020
5342 8.8221426963924436 -25.774465988252086 0.28082132999564646 213 215 198 2.0124986316085232 73 1280 63 6804 68 5595
4093 12.647407884666286 -15.489121740961545 -0.94185700360990199 155 173 172 1.8101520892398781 19 5214 24 6973 36 6795 43 6128
6450 3.3087809708405254 -19.932824190747393 5.9823685204917032 159 160 127 0.98020191347180763 40 2962 45 6107 50 6070 20 1838 30 2313
5341 6.536245179709657 -26.732914152752205 1.0847204454317787 94 86 116 0.60123623133120729 21 3876 63 6772 29 1344 204 6374 201 9711 200 7752
6363 -3.2203443546067039 -21.221498138629066 3.5111250536328118 71 61 60 0.18177606901912635 17 4218 79 2185 23 5610 113 6244 109 8136 108 8099
6360 -3.1662681724454829 -21.430227776660487 0.78817361362008864 226 202 59 0.49531103581957692 17 1470 79 1136 23 4368 219 6920
6358 -1.5790438813296928 -23.964431342452738 1.1938121867508051 245 238 151 0.34311837311667537 18 4028 79 1018 23 5973 219 8164 208 8106 112 7596 95 10322 94 10244 89 9384 88 9680
6357 -3.1130861572569395 -21.65661239723222 2.3018207365015617 83 59 56 0.44394842230211201 17 3019 23 5795 79 892 219 6454 81 7176 208 6866 131 12110 130 11983 116 6283 115 9587 114 9414 113 6441 112 6409 111 6508 110 6497 109 8310 108 7400 101 8518 100 8858 99 6248 98 6437 97 9891 96 9709 93 6751 92 5341 91 6690 90 6964 89 8684 88 8965 87 9046 86 9124 85 9431 84 9752 83 9481 82 8933
6356 -3.1130861572569377 -21.65661239723222 2.3018207365015622 83 59 56 0.44394842230201609 17 3018 79 891 23 5794 219 6453 81 7175 208 6865 131 12109 130 11982 116 6282 115 9586 114 9413 113 6440 112 6408 111 6507 110 6496 109 8309 108 7399 101 8517 100 8857 99 6247 98 6436 97 9890 96 9708 93 6750 92 5340 91 6689 90 6963 89 8683 88 8964 87 9045 86 9123 85 9430 84 9751 83 9480 82 8932
6329 -3.5288045079468446 -20.161117468830525 3.2308742785307953 93 68 75 0.882236277869347 17 6489 23 8722 76 6496 14 5185 219 10818 208 8756 116 8089 115 11241 114 11099 113 8256 112 8199 111 8269 110 8290 93 9149 92 9045 91 9054 90 9464
6324 -3.7159253634215164 -18.589315414592583 0.14641986603355667 164 119 27 0.3638644592070297 17 6154 14 4948 76 6138 98 8476 82 10662
6301 -3.4255122737965764 -20.814603031926886 1.1092214155025348 115 83 69 0.70558842829632962 17 5778 14 3748 23 8458 219 10224 208 8586 116 7905 86 10628
6299 -2.7853160869086357 -22.592044295046694 1.4644038018699757 219 203 98 0.61298193309708471 18 7604 14 3730 23 8176 219 10202
6291 -1.9892860476419516 -23.0044139712376 -0.31119276197057089 199 154 46 0.89032346605066359 18 7655 23 8499 79 3524 14 2910
6285 -1.6351185224535292 -20.49642940810109 -0.023086293372239511 235 231 168 0.44056041054572304 17 5362 23 8236 219 9292
6283 -3.6339989223383875 -20.111643710836692 0.12868876716420158 86 54 58 0.62793413949410448 17 5346 23 8230 14 2834 219 9863
6260 -2.8491205122271834 -22.277065686884949 3.0538188513484092 124 91 68 0.57733610496306476 18 7106 23 7613 14 2519 219 9645 208 8285 116 7324 111 7096 110 7072 109 9124 108 8727 101 9067 100 9832 99 7512 98 7729 97 11263 96 11082
6253 -3.7132867338150768 -20.057737187961589 -0.2619994905634862 110 71 45 0.43842061943941629 17 5369 23 7818 14 1302
5906 3.4391519932369454 -23.921930255162575 -0.31812553987041503 217 218 210 0.91090617017866737 14 2912 18 6621 71 6483 62 7889 209 8612
5889 3.4021492072958357 -23.770481939225849 -0.19321493147615398 211 212 199 1.1018709894084697 14 2886 18 6610 71 6212 62 7775 209 8605
5887 3.937217914894052 -25.606674583888442 -0.044841860032375849 80 72 88 0.98315436566676351 18 4205 74 5041 62 7768
5886 3.937217914894052 -25.606674583888442 -0.044841860032375849 80 72 88 0.98315436566676351 18 4206 74 5040 62 7767
5885 3.2736810364587661 -23.207027030022367 0.0090746707333412766 169 176 146 1.8009742998546794 14 1205 71 5867 62 7765 1 1531 18 4175 219 10239
5860 3.364552035342641 -23.646756101955351 -0.26809738071251038 173 171 162 1.2384872639542559 18 1884 71 5378 62 7397 209 8080
5855 3.3230846587190737 -23.412926134564668 -0.061386922427247678 186 187 162 1.1468131054528563 18 1774 71 4568 62 7381
5836 0.90933279897490471 -14.356399035409979 0.50743692310519217 230 229 230 2.2299167857118998 22 6814 64 7978 66 6491
5827 4.2005369652217563 -16.968101446750467 2.1500182888636981 196 183 194 1.1489884321315602 71 6167 64 7697 66 6312
5826 7.5654671864689655 -16.078101165787231 2.9022518343180708 196 192 202 1.6497767403164652 20 3713 66 6299 64 7687
5820 4.4987479179771066 -16.904864167818754 -0.4475326696469033 88 75 81 0.95321084858450222 66 6099 71 6217 64 7541
5792 7.7223269407759298 -12.184359742294802 1.1566958559673257 139 133 133 0.84477301988348208 19 4870 66 5731 64 6789
5787 -5.8181292473822239 -13.968290625843776 2.8740465381925384 216 192 173 1.3447264025389014 71 5815 64 6750
5784 7.8476206807791042 -16.19910998688567 3.8235480954174492 130 116 110 1.0542457748643932 66 5073 64 6647 76 6491
5773 6.4325336377648856 -17.564482881355531 5.3446453409661689 126 104 88 1.0187515384583194 20 3081 76 6041 64 6542
5768 0.38528382818074092 -14.468305795928639 -1.580020713732839 84 66 87 0.6032356438478802 22 6458 64 6293 66 4575
5763 -0.32155374587144175 -14.24176265849081 -0.67949284793506759 68 45 59 1.8423179453195209 28 9870 71 1515 64 6241 17 3558
5762 2.0082040858497892 -14.117718709902903 -0.61069715767968258 56 41 62 1.6948250492818708 22 6432 66 4516 71 4609 64 6234
5743 0.83540557389486825 -17.711725792158518 1.8677494725859003 199 189 139 1.1601430694643942 22 6622 71 4446 64 6064
5737 8.0489669743731138 -16.215223236904894 4.1142118527176139 154 154 135 2.0987641329355129 66 5050 76 6483 64 5919 20 3260
5734 7.1995065454963925 -16.596915660021391 4.5032449405770434 165 160 133 0.87815088367004768 20 3077 76 6087 64 5896
5730 -0.39573090450190945 -17.880023614497208 -1.2618059356547395 75 60 47 1.6014086592940822 22 6469 71 3545
5729 0.40588080974956237 -14.129381553365572 -1.3708696942521257 70 51 90 1.3674368700269213 22 6269 66 3411 64 5365
6048 10.637346345257493 -11.861243269416992 -0.59935990899851643 94 88 78 0.64746106740581733 27 2962 2 3385 24 3561
3691 0.80910803270386344 -18.276210585521511 4.4577641220029527 199 202 187 0.86468724546537101 40 1786 50 4806 43 2350
6029 12.689036530278562 -15.675110295244361 -0.9320977896356627 183 187 137 0.21399424986799767 19 1360 2 1021 13 4801 206 2907 202 2760
3672 2.4749538465086021 -20.734489344018893 5.8211363421250164 184 183 161 1.3281750153691636 25 2041 40 1957 45 6151 50 4404 20 2474 30 2763
6015 2.9564507228246755 -22.595630623205622 0.0045521795720227607 213 214 168 0.92193408114757369 21 7831 29 6267 1 6152 200 8735 199 9270
3658 1.1096648176969137 -20.614751683543151 5.9335666755896828 171 179 211 0.28438623636127697 40 1996 45 4387 50 2031
6014 2.8491583983038105 -22.616359224385853 0.13276151578763429 217 213 158 1.3535025134809608 21 7829 29 6260 1 6145
3657 2.8837886341780803 -18.777595952883829 5.5856797023564146 131 122 101 0.55418081454645163 40 99 64 122 50 2025
3655 2.9520430973070391 -18.819697109969447 5.6120583915867881 116 106 91 0.92380602223354547 40 1784 64 104 50 2015
6011 2.9177059107435706 -22.616384139096152 -0.71707779388452331 141 147 139 0.59045015105629917 29 6323 1 5708 21 7856
3654 1.4491698504338351 -20.715599429309869 5.9009234002975024 175 178 204 0.64356669508002251 30 224 40 365 45 1878 50 2002
6010 -0.82341108211555047 -21.126285344162156 -0.84749664616360287 170 130 79 1.2073691220452778 14 2985 1 5704 17 5870
3653 3.3698124789822712 -20.129850839550912 5.9395387521757339 113 118 106 0.76639645885310248 40 190 45 2059 50 1929
6009 2.7060652312081963 -13.409251587733719 -0.37607347763905974 176 177 121 2.0316870356607932 17 1752 1 5699 22 3500 27 4212
3652 3.4866730927507272 -20.064243209002939 5.9484776010492544 179 179 135 0.69478840407652476 20 871 50 1919 30 2317
6008 2.8458846051364075 -22.619759267855187 -0.015471336769270268 216 213 170 1.143757871123267 21 7740 29 6270 1 5640
3651 3.4642271013351196 -20.597392578966947 5.7719692433072858 170 171 145 0.79859443406654063 45 4652 50 1869 30 429
6006 2.9164932379556272 -22.602134181598611 0.089393051237700083 157 162 135 0.54763827698434564 21 7736 29 5725 1 5628
3649 3.5798342754901142 -20.614171702539409 5.7417016414088016 160 165 143 0.64512000448000095 45 2235 50 1851 40 1877 30 1570
6005 3.2765672237492018 -23.130236045599748 0.10605831442200128 159 167 136 0.52333481132951365 18 7632 1 5625 14 4945 219 10954 209 8784
3648 8.8159158646537499 -16.369361489417283 1.9024435379829521 221 230 253 2.3459038047599998 24 7311 36 7289 49 9240 43 6784
6004 3.2364185825766212 -22.803748944362276 0.19833135058591789 90 81 98 1.1864169161142739 18 7210 1 5618 71 6197
3647 9.7150254663689442 -17.189521136524373 1.2411578479787029 96 103 142 1.5128770307834563 36 7248 43 6626 24 7285
6003 0.60049348332193586 -17.335172534263098 0.38345467211105627 181 169 119 0.99015966836687797 6 3512 14 1066
3646 2.3891351762927338 -13.482379165515475 -0.20878324625509406 184 182 119 1.1806770691412098 22 6816 66 6612 49 9184 11 3369 64 7887
6002 3.1269088611794471 -22.573287815668799 1.0402152562972997 212 209 167 1.1579926185975873 21 7706 1 5529 29 5636 199 9160
3645 2.7325696982833301 -17.373060447847006 3.4922236986185187 191 184 133 2.1760946043912566 64 7960 71 6840 49 9167
6001 -3.2024893603896785 -21.301427965803462 3.3212565825978659 151 54 33 1.6514707372773421 14 3628 17 6315 79 3966 1 5456 208 8646 116 7960 115 11045 114 10896 113 8041 112 7989 111 8080 110 8090 109 9521 108 9488 101 9902 99 8053 98 8268 93 8849 92 8739
3644 2.1918293497352481 -17.494777472583991 3.3854521630761685 187 183 141 2.8370919752579451 25 3350 64 7862 49 9165
6000 -3.1611452050350723 -21.388023541987646 3.3897142072790727 142 123 64 0.58732453915367844 14 3625 1 5453 79 3736 208 8642 116 7834 111 8078 110 8088 109 9520 108 9487 101 9901 100 10263
3643 4.0657010452212718 -17.604162647646199 4.7310761325059483 66 65 93 0.31707351244103826 36 7184 43 6582 49 9164
5999 -3.185411815508989 -21.351358178704434 3.5703143502668042 122 73 33 0.58348024679743804 14 3611 17 6025 79 3733 1 5444 208 8471 116 7829 115 10854 115 11036 114 10689 114 10886 112 7763 111 7878 110 7878 109 9348 108 9318 93 8839
3642 2.6051136380278281 -22.998805848375834 -0.35582048351001022 164 154 98 2.0525202956997259 42 5725 49 9143 38 5400
5997 3.2258548500966815 -22.772624208985096 -0.580797902612603 108 98 107 1.2983700080404523 14 2949 1 4886 71 5901 219 10548 209 8718
3640 2.0843388547019561 -13.680264293079414 0.12513916390551172 47 37 69 1.6181886757326018 22 6815 64 7885 66 6610 49 9135 71 6762
5996 -0.93585506134240803 -20.748062828186566 -0.60747524757407223 134 105 87 0.77547466053485214 23 8669 1 4874 14 3905
3639 2.03189865706433 -13.637067774795796 0.82009374237779398 56 44 85 1.2303072117543299 66 6486 49 9126
5995 3.2475366257558687 -22.795278335136999 -0.46467625816451602 125 121 120 1.0018785988189747 14 1373 18 5649 1 4868 219 10280 209 8622
3638 2.3921276021027587 -17.356300312514026 3.2453762745939212 112 107 97 1.6840222230245834 25 3335 64 7863 71 6611 49 9103
5994 3.0288889289163432 -22.589640649340669 -0.44511525649902739 181 186 134 1.0285152961492929 21 7332 29 4943 1 4863
3637 2.0478856714488427 -17.438390354203161 3.0874634606612887 100 90 103 1.6176277478510361 64 7685 49 9102
5993 3.0354976140701826 -22.588488592157169 -0.13454718386116482 208 208 150 0.79133256077047542 21 7559 29 5739 1 4829
3636 5.2419860363252555 -17.325595328478997 4.7174566873130939 97 130 130 2.6877900067955411 36 7126 49 9099 43 6452
5992 -1.4066357298090653 -20.450052173840987 -0.042971993362045047 246 242 158 0.69624465384570655 14 2852 1 4816
3635 4.865275558707145 -17.671619988718451 5.1085164282880262 75 76 93 0.82838848128994735 36 7123 43 6447 49 9098
5991 2.7986283667331171 -22.629835876645735 0.080729110822652161 207 203 141 0.96178571104272514 21 7553 1 4789 29 4867
3634 4.4904003256347611 -17.690823251716065 5.0763100772078174 129 130 118 2.1848641846205061 43 6445 64 8019 49 9097
5990 0.71477579452770645 -17.71033477588762 0.3779544704412644 208 189 107 0.51080003132802398 6 3514 1 4751 14 4486 17 5794
3633 3.3903290856233572 -13.266770629662883 -0.55966234544875204 47 33 44 1.137748234039907 11 3303 17 6712 22 6792 27 4546 36 7084 49 9047
5989 0.61528516226946794 -17.329662688525513 0.52371080504541478 144 139 112 0.40358583641179296 6 2456 14 1021 1 4722
3632 12.743052130942321 -15.337329993723364 0.33716384225806212 104 141 145 0.59123478560172282 24 7160 36 7150
5988 -3.6048307367412611 -17.815208143592891 1.2520807949047892 173 146 35 0.74404398032546504 6 3473 1 4698 166 10689 107 10992 105 7856 104 7935 103 11633 102 11209
3631 8.7277897215993043 -15.965931212099466 0.91125896574237952 139 147 158 1.3377344753550788 24 7225 49 9037 43 6508
5987 -3.1911776017051148 -21.299796386300017 3.9232903403026986 130 110 81 1.5013463093436725 14 2440 23 7575 1 4492 219 9598 208 8244 166 10282 153 8470 116 7276 113 7448 112 7427 111 7534 110 7532 109 9091 108 9054
3630 8.4484031658199559 -16.144320885207328 2.3321228831229468 215 227 250 1.505352853988061 36 6916 49 9016 43 6296
5986 -3.212533086261562 -21.217346473356582 3.9707401953044754 88 64 66 0.5728696821171736 14 2438 23 7572 1 4488 219 9595 208 8242 166 10278 153 8468 116 7274 115 10509 114 10346 113 7446 112 7426 111 7529 110 7527 109 9085 108 9048
3629 2.9762803922648389 -17.272232216783276 3.1332448755563989 129 134 114 2.3647553700177499 25 3312 36 7036 64 7684 49 9003 43 6269 71 6429
5985 -2.8381718795070947 -21.684041199143209 4.9604154741747069 88 66 62 0.51966080346053456 14 3556 1 4414
3628 2.7121325636940528 -17.31964764181226 3.2345748588235064 122 117 113 1.4194868727655439 25 3311 36 7034 64 7683 49 9000 66 6297
5984 3.0396855264089706 -22.607576666171287 -0.94934816794992705 123 123 128 0.4334454325079935 21 7616 29 5017 1 3800
3627 4.8771335734713102 -17.303228018507092 4.6410422072895816 86 76 88 0.99560965637576493 36 7028 43 6451 76 6675 49 8996
5983 2.9476953845774281 -22.636623671218885 -0.88811129340663508 146 153 152 1.2504111900959352 21 7363 29 5010 1 3778
3626 3.7998484123716838 -17.522896326738504 4.5762915843467047 122 137 133 0.45989479530787358 36 7022 43 6252 49 8988
5982 3.0291350908959536 -22.620747537534228 -0.60940136004161549 147 158 146 0.64633872222908273 21 7349 29 3756 1 3713
3625 5.3699090977104138 -17.81105424376419 5.2501191792508877 87 92 105 2.0214797548482233 43 6253 49 8987 36 7021
5981 3.2520221720977607 -22.83437566674057 -0.56516042197581884 168 174 135 0.52945338646078755 14 2947 18 6651 1 3703 219 10540 209 8715
3624 5.4368297784196304 -18.022114616950418 5.51780892929595 72 77 105 0.34694821474350218 36 7120 43 6249 49 8984
5980 2.8192338185039123 -22.649556536846326 -0.53562355129133021 128 130 137 0.96034681654310605 21 7339 1 3687 29 1672
3623 8.1071339066613834 -15.551385282398892 -0.52283200354735759 28 23 36 1.6393490908834265 24 7166 49 8930 36 7083
5978 -0.083147073912256814 -21.01785279491201 -0.61674054906550779 120 92 76 0.91784769613080264 14 1403 17 5859
3621 12.429469809667193 -15.0037224687206 0.58812645125222007 165 183 181 1.1015630328038448 19 5242 24 7074 49 8919
5977 -3.8288619269038775 -17.770476081273529 -0.2431773152801763 56 36 55 0.071911425776892662 17 3509 23 8250 219 9326 99 7738 84 11139
3620 0.27939055323068884 -18.051162113008253 0.20552436357198325 178 170 122 2.0713717121974375 36 7079 49 8912 64 6190
5976 2.8444129944764458 -22.621062947287747 -0.17850863167477815 153 164 132 0.71061979869874892 21 7298 29 3647 1 3626
3619 8.9637400314860791 -17.892604880784901 1.4888123307683803 176 184 198 1.6414698583410647 24 7063 49 8904 43 6310 36 7064
5975 3.0862311416580148 -22.559487766196327 -0.14977804124901634 168 167 137 1.0662425235740147 21 7563 29 4891 1 3620
3618 9.2177198622964998 -19.094404654529221 1.4886450331543386 182 193 198 0.38250077165251506 43 6307 49 8902 24 7146
5974 2.8756616948664231 -22.645274489177403 -0.12225478880342285 216 215 162 1.3452663259491082 29 3636 1 3619 21 6926 199 8862
3617 2.8138607601361421 -13.438570837895721 2.4060561105477216 135 147 164 1.2637014480543265 32 5881 49 8897 30 3762
5973 3.2558554137552873 -22.845546578665743 -0.11595466316116872 141 142 133 0.86725260034755447 14 2864 18 6595 1 3616 219 10510 209 8596
3616 9.7454839618956068 -16.822502711299276 5.5281719220514072 52 78 161 1.3848267047834224 43 6010 49 8884 36 6717
5972 3.2558554137552873 -22.845546578665743 -0.11595466316116872 141 142 133 0.86725260034755447 14 2865 18 6594 1 3615 219 10511 209 8597
3615 5.716786573232838 -17.658906597177054 5.2833508564018308 118 127 111 1.9688150999802791 36 7023 43 6257 49 8875 76 6667
5971 3.0658115886583506 -22.572078998200436 0.10186835717483808 209 212 174 0.46978384891767883 21 7285 29 3587 1 3582
3614 4.215853379907724 -16.758845898768666 -0.46749856485039942 69 64 76 0.55616858956637516 36 6950 49 8776 43 6130
5970 2.7539354832721505 -22.65493655703478 0.23760394936010409 236 233 197 1.1746879468519271 29 4856 1 3552 21 6879
3613 3.0617726218876582 -13.38657805602956 -0.50105093119487365 120 125 115 1.527168507833701 27 4532 36 6792 49 8773
5969 3.2795825949476134 -22.918056123217973 0.25945455883146851 88 79 84 1.0134868304339422 14 1127 18 6539 1 3544 219 10218 209 8567
3612 2.6964725498484419 -13.398667043952804 -0.50547131509418974 125 111 80 1.9967868762439795 22 6747 64 7536 66 6097 49 8772 11 3129 17 6521
5967 2.9442278369010371 -22.600218123618276 0.40728466896322613 109 107 121 0.67818019463388401 21 6857 29 1375 1 3512 200 8457 199 8972
3610 2.1656835769634073 -13.537151803015675 0.4139723948356655 210 212 198 1.4147882749890104 64 7243 66 5756 71 5859 49 8750 22 6552
5966 0.60158734245432233 -17.297097231501859 0.48526012313762379 114 102 70 1.2241821144928959 6 736 1 3476 14 1031
3609 4.2196866227250789 -16.762614157642389 0.58223013475356611 162 169 113 0.8349737259168637 36 6935 43 6323 49 8746
3608 2.5219612439297778 -22.808384820661786 0.065081222721438972 164 152 82 0.75724113176023833 38 4216 42 4422 49 8745
5964 3.2036779607352299 -22.551655296874436 1.3128865135072707 202 203 153 0.70445362791228028 21 7190 29 4745 1 3279
3607 1.8168464329251024 -13.615554273198597 2.7347156045721026 139 141 182 2.353478405481896 43 6278 64 6737 49 8702
5963 -2.7636673276601638 -22.768946103897658 3.0017132042256929 84 68 66 0.88126986532783436 14 2526 23 7619 1 3221 219 9648 208 8289 116 7632 113 7831 112 7779 111 7894 110 7890 109 9129 108 9089 101 9490 100 9841 97 11267 96 11085
3606 1.5731009581571547 -13.718018149046687 2.6332158955361775 135 137 187 0.54774913425525529 43 6279 64 6740 49 8701
5962 -3.1421995969094692 -21.443106483289625 3.7824056996960769 115 77 52 0.79659870647418929 14 2449 23 7579 79 3438 1 3095 219 9611 208 8252 131 12285 111 7541 110 7538 109 9099 108 9062
3605 2.1565196957540858 -13.753856188249523 3.0247586251284075 110 114 141 1.1041008568884492 32 5981 49 8694 30 3742
5961 2.9915090738818977 -22.606920722867791 -1.0417427146858442 115 113 133 1.6214017939189678 21 7027 1 1916 29 1847
3604 7.6995797520159392 -16.416984702452865 4.362137938317078 45 46 110 1.18795657906855 36 6719 43 5628 49 8684
3603 3.4772115424539032 -17.179408786745437 2.8440551425741614 108 123 117 1.0203662120737209 36 6720 49 8683 25 3313
5958 2.8899356917862016 -22.618709971187627 -0.44656877765115355 174 185 154 0.75685678440915483 21 7333 29 3716 1 1703
3601 2.3978116030929906 -17.357686663712919 3.20829766452567 120 108 103 1.3013491124013288 36 6708 64 6679 71 5186 49 8671 66 5676
5957 2.9764701946322636 -22.616351943834335 -0.43226400246913188 186 193 141 1.3210195281566737 21 6964 29 3705 1 1696
3600 2.3667682575315201 -22.833153670840009 1.0599077303905236 223 220 205 0.65756391840839157 42 4277 49 8653 38 3991
5956 3.062190593469639 -22.57426993035304 -0.23951733306716586 143 134 120 1.0191286258293013 21 6933 29 1551 1 1621
3599 4.0811838892189281 -17.79833541696761 5.0186365759789977 77 76 105 2.2759374794366525 25 3167 43 5983 49 8652 36 7019
5955 3.0334143907878661 -22.589342342207715 -0.22027206017885514 205 199 147 0.65985247890878429 21 6932 29 1543 1 1610
3598 1.7154981587020526 -14.352461675341996 -1.3423225816018034 58 54 33 0.85228606522320938 22 6453 49 8550 11 2846
